# NCOLS 3NROWS 119583
139586.702 487820.037 -101.190
139586.698 487819.858 -101.191
139586.571 487820.049 -101.197
139586.664 487819.856 -101.164
139586.564 487819.836 -101.124
139586.336 487819.993 -101.215
139586.706 487819.972 -101.113
139586.505 487819.745 -101.179
139586.584 487820.034 -101.181
139586.543 487819.969 -101.156
139586.602 487820.074 -101.184
139586.555 487819.984 -101.169
139586.582 487819.992 -101.140
139586.632 487820.025 -101.138
139586.318 487819.747 -101.214
139586.481 487819.761 -101.206
139586.302 487819.935 -101.189
139586.377 487820.048 -101.186
139586.388 487820.090 -101.148
139586.423 487820.040 -101.153
139586.439 487819.944 -101.192
139586.487 487820.037 -101.169
139586.606 487820.079 -101.184
139586.421 487819.952 -101.216
139586.269 487820.099 -101.217
139586.403 487820.049 -101.172
139586.361 487820.038 -101.195
139586.278 487820.065 -101.205
139586.268 487820.022 -101.200
139586.229 487820.035 -101.205
139586.312 487820.090 -101.195
139586.422 487820.012 -101.190
139586.428 487820.049 -101.142
139586.412 487820.063 -101.157
139586.603 487820.019 -101.149
139586.576 487820.062 -101.196
139586.446 487820.008 -101.169
139586.536 487819.758 -101.153
139586.626 487820.094 -101.191
139586.672 487820.076 -101.207
139586.598 487820.011 -101.147
139586.662 487819.732 -101.145
139586.456 487820.047 -101.128
139586.351 487820.044 -101.197
139586.326 487819.961 -101.206
139586.270 487820.067 -101.205
139586.261 487820.027 -101.197
139586.262 487820.092 -101.220
139586.690 487819.852 -101.192
139586.614 487819.849 -101.127
139586.482 487820.018 -101.167
139586.648 487819.894 -101.127
139586.545 487819.838 -101.129
139586.603 487820.045 -101.169
139586.515 487819.752 -101.165
139586.351 487819.953 -101.222
139586.221 487819.990 -101.222
139586.476 487819.762 -101.208
139586.622 487820.007 -101.123
139586.678 487820.032 -101.169
139586.672 487819.855 -101.170
139586.410 487820.008 -101.213
139586.669 487819.773 -101.151
139586.325 487820.029 -101.210
139586.537 487820.050 -101.211
139586.282 487819.863 -101.213
139586.430 487819.966 -101.199
139586.445 487820.013 -101.163
139586.265 487819.977 -101.192
139586.624 487820.003 -101.117
139586.630 487819.823 -101.134
139586.485 487820.041 -101.177
139586.682 487819.816 -101.172
139586.613 487820.039 -101.159
139586.573 487820.081 -101.211
139586.731 487819.986 -101.123
139586.458 487820.067 -101.137
139586.658 487819.892 -101.138
139586.222 487819.812 -101.203
139586.256 487819.824 -101.207
139586.365 487820.088 -101.159
139586.406 487820.073 -101.159
139586.438 487820.020 -101.160
139586.445 487820.061 -101.124
139586.472 487820.012 -101.162
139586.582 487820.072 -101.198
139586.639 487820.103 -101.198
139586.625 487820.056 -101.163
139586.655 487820.004 -101.117
139586.102 487819.926 -101.336
139586.071 487820.088 -101.383
139586.061 487820.046 -101.383
139586.134 487820.184 -101.295
139586.117 487820.141 -101.336
139586.045 487820.027 -101.388
139586.248 487819.746 -101.270
139586.076 487819.750 -101.334
139586.335 487819.805 -101.251
139586.262 487820.127 -101.240
139586.297 487819.740 -101.231
139586.111 487819.827 -101.307
139586.259 487819.744 -101.272
139586.293 487819.825 -101.237
139586.407 487819.745 -101.248
139586.050 487819.746 -101.302
139586.370 487819.936 -101.237
139586.207 487820.131 -101.300
139586.155 487820.098 -101.341
139586.136 487820.192 -101.291
139586.011 487819.912 -101.341
139586.047 487820.038 -101.387
139586.202 487820.189 -101.274
139586.192 487820.113 -101.320
139586.103 487819.953 -101.364
139586.207 487820.163 -101.287
139586.222 487820.192 -101.263
139586.370 487819.739 -101.230
139586.340 487820.158 -101.236
139586.030 487819.886 -101.321
139585.992 487819.761 -101.275
139586.150 487820.081 -101.358
139586.095 487819.922 -101.334
139586.127 487820.170 -101.307
139586.114 487820.128 -101.348
139586.096 487819.811 -101.319
139586.180 487820.076 -101.345
139586.157 487820.074 -101.359
139586.054 487819.732 -101.319
139586.227 487820.177 -101.269
139586.318 487819.862 -101.250
139586.125 487819.953 -101.361
139586.106 487819.899 -101.319
139586.329 487819.895 -101.243
139586.204 487819.749 -101.289
139586.220 487820.149 -101.285
139586.019 487819.933 -101.353
139586.321 487819.873 -101.250
139586.106 487819.931 -101.341
139586.021 487819.778 -101.295
139586.060 487820.079 -101.387
139586.082 487819.880 -101.329
139586.421 487819.754 -101.256
139586.096 487820.101 -101.371
139585.978 487819.821 -101.282
139586.078 487820.197 -101.284
139586.023 487819.752 -101.288
139586.097 487820.185 -101.292
139586.087 487820.187 -101.290
139586.256 487820.157 -101.249
139586.204 487820.129 -101.303
139586.230 487820.211 -101.251
139586.382 487819.733 -101.233
139586.233 487819.742 -101.276
139585.971 487819.768 -101.269
139586.416 487819.746 -101.251
139586.344 487819.806 -101.256
139586.104 487819.752 -101.339
139586.067 487819.943 -101.344
139586.087 487820.028 -101.382
139585.966 487819.746 -101.252
139586.154 487819.948 -101.353
139586.110 487819.856 -101.283
139586.144 487819.942 -101.348
139586.192 487820.067 -101.342
139586.154 487819.945 -101.351
139586.379 487820.101 -101.237
139586.344 487819.901 -101.256
139586.106 487819.762 -101.333
139585.981 487819.798 -101.283
139586.113 487820.077 -101.370
139586.103 487820.035 -101.378
139586.139 487819.919 -101.276
139586.219 487820.110 -101.293
139586.029 487819.764 -101.293
139586.058 487819.734 -101.319
139586.230 487820.145 -101.271
139586.229 487820.104 -101.277
139586.326 487819.904 -101.234
139586.234 487819.747 -101.270
139586.198 487819.758 -101.275
139586.228 487820.135 -101.275
139586.210 487820.061 -101.318
139586.153 487819.919 -101.339
139586.201 487820.116 -101.315
139586.163 487820.131 -101.317
139586.144 487820.226 -101.276
139586.074 487819.974 -101.366
139586.039 487819.759 -101.296
139586.121 487820.235 -101.256
139586.035 487820.033 -101.395
139586.356 487819.765 -101.240
139586.089 487820.197 -101.278
139585.976 487819.776 -101.277
139586.452 487819.758 -101.233
139586.376 487819.767 -101.256
139586.202 487820.108 -101.318
139586.422 487820.127 -101.237
139586.030 487819.931 -101.353
139586.323 487819.904 -101.229
139586.260 487820.197 -101.230
139586.205 487820.110 -101.312
139586.326 487819.815 -101.250
139586.192 487819.965 -101.281
139586.188 487820.063 -101.348
139586.195 487819.964 -101.324
139586.166 487820.239 -101.269
139586.400 487819.726 -101.236
139586.165 487820.061 -101.362
139586.244 487820.118 -101.251
139586.117 487820.209 -101.272
139586.183 487820.205 -101.274
139586.352 487819.804 -101.259
139586.168 487819.937 -101.316
139586.431 487819.762 -101.252
139586.126 487819.959 -101.366
139586.134 487820.141 -101.322
139586.393 487819.731 -101.239
139586.331 487819.882 -101.254
139586.121 487820.097 -101.363
139586.152 487819.928 -101.292
139586.362 487819.744 -101.230
139586.114 487819.894 -101.276
139586.174 487820.134 -101.314
139586.157 487820.233 -101.275
139586.133 487820.150 -101.319
139586.105 487820.204 -101.275
139586.120 487820.105 -101.357
139586.190 487820.154 -101.296
139586.135 487820.122 -101.337
139586.017 487819.840 -101.294
139586.030 487819.781 -101.300
139586.074 487820.054 -101.383
139586.063 487820.011 -101.380
139586.112 487819.821 -101.307
139585.999 487819.839 -101.289
139586.035 487820.056 -101.402
139586.114 487819.953 -101.364
139586.297 487819.740 -101.231
139586.188 487820.225 -101.264
139586.363 487819.932 -101.237
139586.283 487819.830 -101.228
139586.242 487820.194 -101.249
139586.184 487820.126 -101.317
139586.248 487820.206 -101.237
139586.196 487820.142 -101.302
139586.156 487820.152 -101.305
139586.179 487820.060 -101.357
139586.086 487820.219 -101.263
139586.073 487820.177 -101.307
139586.004 487819.928 -101.351
139586.139 487819.955 -101.361
139586.022 487819.727 -101.459
139586.220 487820.082 -101.289
139586.324 487819.861 -101.256
139586.141 487820.137 -101.319
139586.221 487820.025 -101.244
139586.036 487819.885 -101.321
139586.372 487820.108 -101.237
139586.250 487820.216 -101.231
139586.130 487820.092 -101.361
139586.071 487820.204 -101.281
139586.215 487820.115 -101.298
139586.205 487820.041 -101.330
139586.166 487820.144 -101.308
139586.350 487819.787 -101.252
139586.318 487819.840 -101.252
139586.337 487819.915 -101.236
139586.228 487820.169 -101.275
139586.082 487820.121 -101.368
139586.248 487819.746 -101.270
139586.117 487819.757 -101.336
139586.201 487820.013 -101.324
139586.452 487819.758 -101.231
139586.100 487819.944 -101.351
139586.051 487819.777 -101.308
139586.052 487820.093 -101.394
139585.997 487819.861 -101.279
139586.211 487819.743 -101.295
139586.339 487819.833 -101.266
139586.217 487820.103 -101.296
139586.107 487820.180 -101.298
139586.004 487819.801 -101.297
139586.320 487819.894 -101.229
139586.439 487819.739 -101.235
139586.213 487819.752 -101.275
139586.190 487819.944 -101.263
139586.042 487820.062 -101.396
139586.133 487819.777 -101.318
139586.181 487819.952 -101.347
139585.988 487819.732 -101.249
139586.241 487820.131 -101.261
139586.066 487820.101 -101.385
139586.043 487820.019 -101.383
139586.217 487820.169 -101.281
139586.185 487819.957 -101.311
139586.175 487820.182 -101.286
139586.096 487819.890 -101.325
139586.136 487820.195 -101.289
139586.141 487820.056 -101.368
139586.100 487820.069 -101.376
139586.211 487820.007 -101.261
139585.996 487819.745 -101.267
139585.989 487819.830 -101.287
139586.237 487820.182 -101.258
139586.053 487819.979 -101.366
139586.454 487819.763 -101.230
139586.255 487820.141 -101.250
139586.113 487819.742 -101.342
139586.129 487819.807 -101.286
139586.206 487820.104 -101.312
139586.110 487819.881 -101.315
139586.342 487819.800 -101.254
139586.068 487820.066 -101.385
139586.338 487819.795 -101.246
139586.392 487819.740 -101.243
139586.256 487820.149 -101.249
139585.999 487819.896 -101.318
139586.118 487819.937 -101.343
139585.978 487819.749 -101.259
139586.362 487819.744 -101.230
139586.065 487819.913 -101.338
139586.020 487819.876 -101.297
139586.395 487819.786 -101.270
139586.112 487819.772 -101.330
139585.959 487819.727 -101.239
139586.303 487819.789 -101.233
139586.199 487820.179 -101.281
139586.115 487819.890 -101.270
139586.143 487820.144 -101.316
139586.113 487820.202 -101.278
139586.095 487820.117 -101.365
139586.179 487819.752 -101.316
139586.162 487819.933 -101.286
139586.243 487820.186 -101.252
139586.032 487819.939 -101.355
139586.338 487820.161 -101.234
139586.187 487820.047 -101.355
139585.989 487819.785 -101.287
139586.168 487819.937 -101.316
139586.101 487819.830 -101.315
139586.058 487820.080 -101.389
139586.316 487819.887 -101.230
139586.197 487819.974 -101.267
139586.408 487819.943 -101.230
139586.343 487819.930 -101.229
139586.070 487819.784 -101.319
139586.119 487819.826 -101.282
139586.168 487819.947 -101.350
139586.030 487819.872 -101.313
139586.321 487819.814 -101.245
139586.209 487820.105 -101.307
139586.397 487819.751 -101.254
139586.129 487819.899 -101.240
139586.194 487820.158 -101.293
139586.081 487819.749 -101.337
139586.022 487819.853 -101.293
139586.200 487819.985 -101.274
139586.249 487820.096 -101.239
139586.265 487820.138 -101.242
139586.139 487820.216 -101.279
139586.146 487820.077 -101.361
139586.159 487820.208 -101.282
139586.139 487820.127 -101.331
139586.115 487820.040 -101.375
139586.087 487820.095 -101.375
139586.247 487820.190 -101.244
139586.138 487820.167 -101.304
139586.372 487820.108 -101.237
139586.098 487820.177 -101.304
139586.119 487819.892 -101.265
139586.188 487820.144 -101.305
139586.147 487820.157 -101.307
139586.054 487819.821 -101.311
139586.133 487820.112 -101.346
139586.038 487820.066 -101.401
139586.202 487820.019 -101.326
139586.197 487820.055 -101.346
139586.138 487819.913 -101.277
139586.261 487820.169 -101.240
139586.082 487819.928 -101.336
139586.154 487819.925 -101.344
139586.437 487819.740 -101.237
139586.235 487820.199 -101.252
139586.295 487819.847 -101.235
139586.033 487819.817 -101.306
139586.273 487820.158 -101.235
139586.326 487819.789 -101.236
139586.144 487820.239 -101.269
139586.244 487820.213 -101.237
139586.287 487819.801 -101.233
139586.215 487820.196 -101.266
139586.151 487820.097 -101.346
139586.055 487820.070 -101.390
139586.002 487819.747 -101.273
139586.254 487819.736 -101.276
139586.131 487819.769 -101.321
139586.032 487819.950 -101.360
139586.119 487819.825 -101.277
139586.207 487820.198 -101.268
139586.128 487819.906 -101.261
139586.218 487820.116 -101.290
139586.183 487820.169 -101.290
139586.111 487819.920 -101.328
139586.130 487820.137 -101.328
139586.149 487820.043 -101.372
139586.108 487820.056 -101.374
139585.992 487819.818 -101.293
139586.168 487820.073 -101.353
139586.079 487820.108 -101.377
139586.135 487819.947 -101.356
139586.148 487820.165 -101.301
139586.047 487819.792 -101.307
139586.120 487820.222 -101.265
139586.109 487820.174 -101.304
139586.038 487819.928 -101.351
139586.322 487819.902 -101.229
139586.223 487820.114 -101.284
139586.281 487819.833 -101.228
139586.225 487820.147 -101.277
139586.463 487820.092 -101.231
139586.095 487820.209 -101.269
139586.114 487820.115 -101.357
139586.342 487819.765 -101.232
139586.208 487819.732 -101.301
139586.112 487819.852 -101.267
139586.044 487819.781 -101.305
139586.090 487819.947 -101.351
139586.449 487819.779 -101.243
139586.332 487819.837 -101.263
139586.397 487819.748 -101.248
139586.018 487819.856 -101.287
139586.383 487819.786 -101.268
139585.994 487819.772 -101.282
139586.133 487819.905 -101.264
139586.234 487820.136 -101.267
139586.240 487820.173 -101.261
139586.302 487819.727 -101.270
139586.048 487819.845 -101.309
139586.347 487819.785 -101.247
139586.190 487819.748 -101.306
139586.117 487819.760 -101.333
139586.119 487819.894 -101.305
139586.212 487820.184 -101.275
139586.184 487819.966 -101.349
139585.989 487819.750 -101.265
139586.022 487819.876 -101.308
139586.168 487819.937 -101.316
139586.179 487820.071 -101.350
139586.015 487819.765 -101.288
139586.091 487820.194 -101.284
139586.075 487819.977 -101.369
139586.168 487819.947 -101.350
139586.146 487819.947 -101.353
139586.262 487820.113 -101.235
139586.242 487820.076 -101.232
139586.057 487819.789 -101.310
139586.242 487820.075 -101.230
139585.970 487819.765 -101.267
139586.074 487819.930 -101.336
139586.045 487820.039 -101.392
139586.207 487820.209 -101.265
139586.285 487819.804 -101.230
139586.128 487820.220 -101.268
139586.129 487819.923 -101.303
139586.184 487820.129 -101.314
139586.170 487820.081 -101.347
139586.112 487819.853 -101.292
139586.090 487819.915 -101.332
139586.079 487819.869 -101.329
139586.126 487820.040 -101.375
139586.097 487820.092 -101.375
139586.076 487820.190 -101.290
139586.049 487819.800 -101.307
139586.132 487820.097 -101.358
139586.371 487819.952 -101.230
139586.331 487819.903 -101.239
139586.313 487819.863 -101.242
139586.215 487820.093 -101.305
139586.189 487819.962 -101.308
139586.286 487819.846 -101.230
139586.453 487819.736 -101.229
139586.120 487820.175 -101.306
139586.086 487819.770 -101.330
139586.102 487819.744 -101.342
139586.317 487819.870 -101.242
139585.978 487819.787 -101.281
139586.215 487820.014 -101.256
139586.043 487819.939 -101.353
139586.152 487819.916 -101.336
139586.164 487820.091 -101.344
139586.338 487819.772 -101.231
139586.144 487820.182 -101.295
139586.400 487820.131 -101.254
139586.014 487819.877 -101.286
139586.305 487819.867 -101.234
139586.177 487820.146 -101.305
139586.127 487820.135 -101.333
139586.139 487820.159 -101.310
139586.123 487820.118 -101.348
139586.210 487819.981 -101.250
139585.996 487819.814 -101.296
139586.377 487819.758 -101.251
139586.250 487820.216 -101.231
139586.308 487819.796 -101.233
139586.120 487819.897 -101.308
139586.226 487819.746 -101.273
139586.059 487819.923 -101.340
139586.152 487819.916 -101.336
139586.085 487820.227 -101.260
139586.214 487820.205 -101.262
139586.134 487819.908 -101.266
139586.104 487820.236 -101.251
139586.058 487820.069 -101.388
139586.055 487820.025 -101.385
139586.444 487819.747 -101.234
139586.020 487819.901 -101.331
139586.198 487820.125 -101.311
139586.147 487819.950 -101.356
139586.059 487819.797 -101.312
139586.146 487819.774 -101.318
139586.436 487819.784 -101.262
139586.142 487820.091 -101.355
139586.134 487819.785 -101.315
139586.112 487819.844 -101.273
139586.163 487820.053 -101.365
139586.136 487820.227 -101.273
139586.063 487819.977 -101.366
139586.018 487819.732 -101.282
139586.111 487819.917 -101.323
139586.450 487819.770 -101.235
139586.104 487819.888 -101.320
139586.051 487819.937 -101.350
139586.342 487819.774 -101.237
139586.442 487820.120 -101.246
139586.354 487819.931 -101.234
139586.240 487820.219 -101.239
139586.326 487819.850 -101.259
139586.206 487819.757 -101.275
139586.164 487819.770 -101.318
139586.228 487820.157 -101.276
139586.173 487820.129 -101.317
139586.295 487819.743 -101.234
139586.220 487820.093 -101.288
139586.346 487819.885 -101.270
139586.207 487820.049 -101.330
139586.294 487819.856 -101.232
139586.220 487820.182 -101.272
139586.181 487820.194 -101.280
139586.366 487819.760 -101.243
139586.075 487819.816 -101.316
139586.207 487819.761 -101.264
139586.144 487820.069 -101.365
139586.196 487820.131 -101.308
139586.130 487819.917 -101.298
139586.180 487820.227 -101.267
139586.155 487820.146 -101.308
139586.141 487820.102 -101.349
139586.084 487820.211 -101.269
139586.053 487819.944 -101.349
139586.431 487820.142 -101.239
139586.048 487819.833 -101.307
139586.305 487819.831 -101.242
139586.292 487819.859 -101.229
139586.100 487820.194 -101.281
139586.383 487819.727 -101.231
139586.246 487820.152 -101.260
139586.236 487820.110 -101.265
139586.057 487819.764 -101.312
139586.225 487820.202 -101.260
139586.217 487820.100 -101.302
139586.107 487819.937 -101.346
139586.005 487819.735 -101.265
139586.047 487820.072 -101.396
139586.152 487820.089 -101.352
139586.031 487819.807 -101.304
139586.244 487820.110 -101.249
139586.158 487819.929 -101.292
139586.389 487819.729 -101.236
139586.450 487819.747 -101.229
139586.149 487819.787 -101.309
139586.136 487820.241 -101.264
139586.196 487820.061 -101.348
139586.297 487819.740 -101.231
139586.453 487819.736 -101.229
139586.454 487819.766 -101.233
139586.340 487819.824 -101.263
139586.271 487819.748 -101.264
139586.340 487819.928 -101.229
139586.390 487820.171 -101.230
139586.246 487820.163 -101.259
139586.236 487820.124 -101.262
139586.267 487820.157 -101.240
139586.048 487820.086 -101.395
139586.264 487820.191 -101.230
139586.194 487820.075 -101.339
139586.038 487819.849 -101.298
139586.197 487819.733 -101.306
139586.210 487820.097 -101.310
139586.206 487819.997 -101.262
139586.190 487819.944 -101.263
139586.099 487819.939 -101.346
139585.998 487819.739 -101.262
139586.194 487820.053 -101.349
139586.095 487820.175 -101.309
139586.241 487820.085 -101.240
139586.389 487819.773 -101.263
139586.311 487819.810 -101.240
139586.046 487819.825 -101.308
139586.218 487819.748 -101.278
139586.119 487820.089 -101.366
139586.119 487819.767 -101.327
139586.445 487819.761 -101.242
139586.030 487819.863 -101.303
139586.233 487820.178 -101.267
139586.352 487819.921 -101.243
139586.359 487819.938 -101.231
139586.093 487819.787 -101.323
139586.452 487819.778 -101.237
139586.364 487819.796 -101.259
139586.133 487819.915 -101.277
139586.112 487819.856 -101.286
139586.331 487819.846 -101.267
139586.210 487820.141 -101.297
139586.263 487820.188 -101.230
139586.168 487820.154 -101.302
139585.979 487819.755 -101.262
139586.220 487820.173 -101.278
139586.181 487820.046 -101.363
139586.164 487820.136 -101.314
139586.149 487820.235 -101.272
139586.126 487820.154 -101.321
139586.094 487820.204 -101.272
139586.110 487820.111 -101.360
139586.247 487820.109 -101.244
139586.025 487819.955 -101.363
139586.092 487820.038 -101.378
139586.241 487820.211 -101.243
139586.236 487820.144 -101.269
139586.212 487820.060 -101.312
139586.054 487819.982 -101.369
139586.260 487820.186 -101.236
139586.231 487820.101 -101.272
139586.338 487819.772 -101.231
139586.313 487819.852 -101.248
139586.010 487819.777 -101.290
139586.196 487819.749 -101.297
139586.043 487820.031 -101.390
139586.132 487820.177 -101.301
139586.262 487820.161 -101.243
139586.190 487819.944 -101.263
139586.288 487819.851 -101.230
139586.234 487820.216 -101.248
139586.258 487820.203 -101.229
139586.489 487820.049 -101.236
139586.195 487820.091 -101.327
139586.191 487819.962 -101.281
139586.388 487820.113 -101.239
139586.085 487820.182 -101.296
139586.039 487819.805 -101.307
139586.170 487820.162 -101.296
139586.311 487819.877 -101.230
139586.010 487819.906 -101.339
139586.125 487819.758 -101.333
139586.025 487819.797 -101.302
139586.231 487820.079 -101.246
139586.380 487820.104 -101.237
139585.965 487819.743 -101.249
139586.340 487820.158 -101.236
139586.191 487819.962 -101.281
139586.332 487819.916 -101.230
139586.313 487819.841 -101.249
139586.339 487819.867 -101.272
139586.316 487819.783 -101.234
139586.210 487820.176 -101.281
139586.302 487819.854 -101.240
139586.221 487819.739 -101.284
139586.140 487819.762 -101.327
139586.154 487820.142 -101.314
139586.149 487819.961 -101.366
139586.124 487820.203 -101.280
139586.083 487820.206 -101.272
139586.103 487820.115 -101.362
139586.022 487819.783 -101.297
139586.110 487819.729 -101.349
139586.085 487820.180 -101.301
139586.209 487820.217 -101.262
139586.117 487819.884 -101.265
139586.186 487820.136 -101.308
139586.127 487819.926 -101.306
139586.147 487820.149 -101.310
139586.052 487819.813 -101.309
139586.134 487820.104 -101.352
139585.981 487819.760 -101.269
139586.074 487820.214 -101.269
139586.118 487820.133 -101.342
139586.436 487819.760 -101.247
139586.344 487819.922 -101.238
139586.326 487819.882 -101.246
139586.178 487820.103 -101.329
139586.209 487820.171 -101.284
139586.063 487820.090 -101.386
139586.172 487819.757 -101.319
139586.187 487820.093 -101.333
139586.085 487819.893 -101.328
139586.131 487820.059 -101.371
139586.125 487820.197 -101.286
139586.153 487819.736 -101.329
139586.313 487819.874 -101.236
139585.976 487819.787 -101.279
139586.154 487819.925 -101.344
139586.152 487819.916 -101.336
139586.079 487819.949 -101.351
139585.981 487819.831 -101.281
139586.353 487819.936 -101.229
139586.024 487820.001 -101.373
139586.314 487819.821 -101.242
139586.009 487819.855 -101.285
139586.354 487819.905 -101.261
139586.130 487820.239 -101.259
139586.299 487819.863 -101.229
139586.217 487819.756 -101.264
139586.052 487819.746 -101.308
139586.038 487819.836 -101.305
139586.126 487820.232 -101.262
139586.244 487820.098 -101.242
139586.256 487820.137 -101.247
139586.401 487819.764 -101.261
139586.368 487819.812 -101.272
139586.330 487819.829 -101.260
139586.238 487820.165 -101.265
139586.234 487820.125 -101.267
139586.215 487820.081 -101.306
139586.200 487820.100 -101.321
139586.183 487820.056 -101.357
139586.109 487819.945 -101.357
139586.049 487819.757 -101.304
139585.975 487819.738 -101.246
139586.203 487820.021 -101.321
139585.988 487819.759 -101.270
139586.054 487819.970 -101.361
139586.182 487819.958 -101.347
139585.990 487819.743 -101.260
139586.024 487819.870 -101.308
139586.295 487819.791 -101.233
139586.426 487819.764 -101.258
139585.984 487819.765 -101.272
139586.286 487819.846 -101.230
139586.159 487820.197 -101.285
139586.185 487819.960 -101.311
139586.285 487819.838 -101.231
139586.126 487820.073 -101.367
139586.113 487820.032 -101.378
139586.147 487820.203 -101.285
139586.091 487819.861 -101.327
139586.298 487819.835 -101.239
139586.062 487819.764 -101.317
139586.220 487820.138 -101.286
139586.297 487819.740 -101.231
139586.261 487819.754 -101.263
139586.292 487819.834 -101.236
139586.426 487820.146 -101.239
139586.302 487819.727 -101.270
139586.111 487819.894 -101.311
139586.209 487820.116 -101.303
139586.181 487820.159 -101.296
139586.128 487820.127 -101.339
139585.994 487819.806 -101.294
139586.254 487820.209 -101.229
139586.249 487820.131 -101.250
139586.229 487820.220 -101.248
139586.073 487820.098 -101.380
139586.066 487820.056 -101.386
139586.054 487820.017 -101.383
139586.081 487819.760 -101.334
139586.187 487819.943 -101.236
139586.440 487820.121 -101.243
139586.200 487819.987 -101.268
139586.030 487819.875 -101.316
139586.384 487819.742 -101.243
139586.199 487820.176 -101.284
139586.176 487820.096 -101.335
139586.121 487819.927 -101.336
139586.114 487820.197 -101.283
139586.124 487820.063 -101.371
139586.088 487820.113 -101.368
139586.228 487820.124 -101.276
139586.021 487819.743 -101.286
139586.128 487819.804 -101.287
139586.396 487820.172 -101.229
139585.999 487819.881 -101.300
139586.268 487820.162 -101.237
139586.222 487820.123 -101.284
139586.201 487820.092 -101.324
139586.201 487820.151 -101.293
139586.130 487819.905 -101.258
139586.162 487820.164 -101.298
139586.144 487819.731 -101.332
139586.269 487819.727 -101.273
139586.012 487819.800 -101.299
139586.447 487819.737 -101.232
139586.210 487819.994 -101.276
139586.223 487820.055 -101.236
139586.215 487820.161 -101.287
139586.024 487819.839 -101.299
139586.222 487820.225 -101.250
139586.202 487820.143 -101.299
139586.160 487820.156 -101.302
139586.089 487820.229 -101.257
139586.147 487820.111 -101.340
139586.023 487819.831 -101.300
139586.074 487820.182 -101.301
139586.082 487820.040 -101.381
139586.003 487819.925 -101.343
139586.074 487820.009 -101.380
139586.050 487819.922 -101.343
139586.075 487820.185 -101.296
139586.390 487820.122 -101.244
139586.167 487820.149 -101.305
139586.116 487820.122 -101.351
139586.096 487820.214 -101.263
139586.101 487819.875 -101.329
139586.368 487819.939 -101.234
139586.435 487820.136 -101.242
139585.976 487819.810 -101.283
139586.017 487819.925 -101.354
139586.050 487820.049 -101.392
139586.364 487819.926 -101.240
139586.004 487819.755 -101.278
139586.142 487819.930 -101.333
139586.031 487819.750 -101.291
139586.084 487820.051 -101.380
139586.097 487820.252 -101.247
139586.057 487819.742 -101.313
139586.052 487820.104 -101.394
139586.355 487819.886 -101.276
139586.150 487819.920 -101.336
139586.362 487819.916 -101.252
139586.219 487819.729 -101.293
139586.013 487819.791 -101.297
139586.413 487819.782 -101.270
139586.105 487820.250 -101.245
139586.201 487820.014 -101.329
139586.218 487820.037 -101.238
139586.298 487819.858 -101.234
139586.277 487820.154 -101.232
139586.208 487819.995 -101.287
139586.251 487820.208 -101.234
139586.123 487819.772 -101.324
139586.017 487819.889 -101.321
139586.426 487819.743 -101.243
139586.388 487820.116 -101.241
139586.239 487820.076 -101.232
139586.160 487820.076 -101.356
139586.106 487819.919 -101.331
139586.337 487819.778 -101.236
139586.333 487819.889 -101.254
139586.204 487819.747 -101.294
139586.215 487820.106 -101.299
139586.099 487820.182 -101.295
139586.007 487819.845 -101.291
139586.267 487820.137 -101.236
139586.175 487820.218 -101.273
139586.194 487820.121 -101.314
139586.148 487819.956 -101.361
139586.152 487820.134 -101.320
139586.138 487820.090 -101.358
139586.159 487820.084 -101.350
139586.096 487819.879 -101.326
139586.135 487819.799 -101.273
139586.207 487820.039 -101.319
139586.260 487820.105 -101.236
139586.249 487820.198 -101.241
139586.250 487820.170 -101.251
139586.244 487820.130 -101.256
139586.125 487819.907 -101.255
139586.123 487819.736 -101.343
139586.131 487819.919 -101.298
139586.242 487820.113 -101.252
139586.160 487820.040 -101.369
139586.171 487820.086 -101.341
139586.024 487819.884 -101.307
139586.390 487820.113 -101.244
139586.426 487820.146 -101.239
139586.339 487819.902 -101.250
139586.354 487820.169 -101.238
139586.015 487819.891 -101.293
139586.387 487819.753 -101.251
139586.363 487819.805 -101.264
139586.023 487820.007 -101.378
139586.007 487819.812 -101.299
139586.112 487820.235 -101.254
139586.081 487820.199 -101.278
139586.269 487819.786 -101.229
139586.011 487819.947 -101.361
139586.205 487820.029 -101.328
139586.135 487819.914 -101.279
139585.982 487819.730 -101.241
139586.233 487820.189 -101.260
139586.253 487820.194 -101.238
139586.265 487820.126 -101.237
139586.244 487820.086 -101.234
139586.255 487820.109 -101.238
139586.215 487820.150 -101.288
139586.089 487819.864 -101.329
139586.105 487820.090 -101.372
139586.095 487820.048 -101.377
139585.996 487819.847 -101.283
139586.260 487820.151 -101.246
139586.225 487819.743 -101.275
139586.168 487819.937 -101.316
139586.203 487819.985 -101.282
139586.249 487820.117 -101.243
139586.210 487820.004 -101.256
139586.195 487819.965 -101.292
139586.143 487819.936 -101.340
139586.223 487820.183 -101.269
139586.187 487820.058 -101.354
139586.196 487819.764 -101.264
139586.108 487819.942 -101.351
139586.084 487820.175 -101.307
139586.060 487820.091 -101.389
139586.156 487819.929 -101.289
139586.212 487820.140 -101.291
139586.098 487819.901 -101.327
139586.205 487820.121 -101.309
139586.382 487819.778 -101.263
139586.334 487819.903 -101.242
139586.152 487819.925 -101.341
139585.993 487819.883 -101.297
139586.008 487819.769 -101.285
139586.139 487820.205 -101.282
139586.396 487820.172 -101.229
139586.323 487819.883 -101.243
139586.308 487819.842 -101.243
139585.968 487819.754 -101.259
139586.229 487819.726 -101.287
139585.997 487819.900 -101.320
139586.278 487820.134 -101.233
139586.222 487820.156 -101.282
139586.102 487820.191 -101.284
139586.112 487819.853 -101.292
139586.419 487820.126 -101.248
139586.181 487820.161 -101.293
139586.204 487820.197 -101.271
139586.053 487820.059 -101.391
139586.175 487819.938 -101.239
139586.212 487820.194 -101.269
139586.233 487820.064 -101.241
139586.133 487819.905 -101.269
139586.127 487819.949 -101.353
139586.008 487819.735 -101.276
139585.963 487819.735 -101.244
139586.036 487819.828 -101.305
139586.447 487819.760 -101.236
139586.189 487820.149 -101.299
139586.119 487819.894 -101.297
139586.137 487820.117 -101.340
139586.012 487819.833 -101.297
139586.254 487820.127 -101.245
139586.352 487819.795 -101.257
139586.395 487820.132 -101.254
139586.351 487819.926 -101.238
139586.342 487819.878 -101.273
139586.108 487819.862 -101.318
139586.290 487819.848 -101.233
139585.999 487819.872 -101.278
139586.001 487819.868 -101.281
139586.321 487819.850 -101.254
139586.164 487820.069 -101.356
139586.252 487820.199 -101.238
139586.233 487820.156 -101.271
139586.229 487820.115 -101.279
139586.362 487819.755 -101.237
139586.125 487820.218 -101.268
139586.129 487820.084 -101.364
139586.132 487820.131 -101.334
139586.147 487820.032 -101.372
139586.105 487820.043 -101.378
139586.286 487819.832 -101.231
139586.256 487820.182 -101.242
139586.194 487820.077 -101.336
139585.991 487819.804 -101.291
139586.111 487819.850 -101.273
139586.212 487820.013 -101.242
139586.197 487819.972 -101.329
139586.006 487819.761 -101.283
139586.447 487819.748 -101.231
139586.354 487819.918 -101.246
139586.212 487819.734 -101.295
139586.002 487819.793 -101.294
139586.297 487819.799 -101.233
139585.975 487819.796 -101.281
139586.313 487819.873 -101.233
139586.358 487819.785 -101.255
139586.326 487819.835 -101.257
139586.124 487819.755 -101.336
139586.150 487819.781 -101.318
139586.173 487820.048 -101.363
139586.238 487820.154 -101.268
139586.380 487819.769 -101.258
139586.196 487820.096 -101.327
139586.173 487820.207 -101.276
139586.109 487819.910 -101.324
139586.244 487820.177 -101.256
139586.218 487820.094 -101.297
139586.207 487820.049 -101.338
139586.013 487819.745 -101.284
139586.381 487820.122 -101.257
139586.187 487819.967 -101.343
139586.023 487819.878 -101.294
139586.339 487819.926 -101.230
139585.969 487819.757 -101.262
139586.040 487820.005 -101.376
139586.371 487819.745 -101.235
139586.046 487819.848 -101.306
139586.044 487819.860 -101.309
139586.236 487820.191 -101.255
139586.070 487819.829 -101.318
139586.259 487820.114 -101.238
139586.130 487820.217 -101.274
139586.136 487820.082 -101.361
139586.287 487819.838 -101.233
139586.102 487820.080 -101.373
139586.010 487819.939 -101.358
139586.020 487819.981 -101.364
139585.994 487819.839 -101.283
139586.429 487820.123 -101.246
139586.152 487819.928 -101.295
139586.339 487819.923 -101.233
139586.069 487819.920 -101.337
139586.385 487820.114 -101.239
139586.427 487820.137 -101.234
139586.139 487820.046 -101.372
139586.154 487819.925 -101.344
139586.086 487819.942 -101.344
139586.123 487820.142 -101.330
139586.131 487820.231 -101.267
139586.418 487819.743 -101.248
139586.303 487819.823 -101.239
139586.004 487819.882 -101.286
139586.106 487819.842 -101.314
139585.989 487819.794 -101.289
139586.439 487819.751 -101.240
139586.187 487819.988 -101.364
139586.432 487820.123 -101.243
139586.220 487820.206 -101.260
139586.348 487819.916 -101.246
139586.215 487820.128 -101.294
139586.127 487819.926 -101.306
139586.162 487820.094 -101.341
139586.117 487819.931 -101.338
139586.181 487819.942 -101.239
139586.152 487819.928 -101.292
139586.002 487819.824 -101.295
139586.059 487820.038 -101.384
139586.266 487820.179 -101.231
139586.130 487819.732 -101.340
139586.092 487820.071 -101.376
139586.130 487819.917 -101.298
139586.020 487819.864 -101.287
139585.996 487819.780 -101.287
139586.267 487820.146 -101.241
139586.242 487820.203 -101.246
139586.069 487819.987 -101.374
139586.198 487819.977 -101.277
139586.188 487819.961 -101.330
139586.181 487820.081 -101.342
139586.094 487819.928 -101.336
139586.431 487819.750 -101.245
139586.267 487820.170 -101.234
139586.339 487819.912 -101.241
139586.128 487819.896 -101.237
139586.189 487820.100 -101.327
139586.131 487820.207 -101.280
139586.095 487820.082 -101.375
139586.015 487819.810 -101.301
139586.189 487820.033 -101.361
139586.165 487819.945 -101.350
139586.054 487819.936 -101.344
139586.253 487820.098 -101.236
139586.168 487819.784 -101.290
139586.326 487819.896 -101.240
139586.077 487819.791 -101.318
139586.021 487819.732 -101.284
139586.130 487819.940 -101.349
139586.375 487819.924 -101.246
139586.007 487819.892 -101.321
139586.153 487820.011 -101.374
139586.078 487819.898 -101.330
139586.112 487819.853 -101.292
139586.408 487820.129 -101.251
139586.192 487819.986 -101.348
139586.050 487820.003 -101.376
139586.447 487819.771 -101.241
139586.202 487820.086 -101.325
139586.081 487820.118 -101.370
139586.277 487820.143 -101.233
139586.194 487819.973 -101.283
139586.046 487819.995 -101.371
139586.059 487819.992 -101.373
139586.367 487819.740 -101.230
139586.220 487820.217 -101.256
139586.130 487819.917 -101.298
139586.183 487820.088 -101.336
139586.145 487820.104 -101.343
139586.079 487820.030 -101.382
139586.099 487820.227 -101.257
139586.403 487819.737 -101.243
139586.329 487819.803 -101.246
139586.315 487819.884 -101.233
139586.367 487819.763 -101.251
139586.104 487819.959 -101.369
139586.373 487819.756 -101.246
139586.261 487820.178 -101.236
139586.014 487819.885 -101.288
139586.413 487819.735 -101.243
139586.374 487819.747 -101.241
139586.429 487819.754 -101.250
139586.344 487819.909 -101.247
139586.326 487819.872 -101.255
139586.167 487819.781 -101.298
139586.182 487820.213 -101.270
139586.182 487820.037 -101.363
139586.070 487819.795 -101.315
139586.110 487820.100 -101.366
139586.300 487819.844 -101.241
139586.277 487819.762 -101.244
139586.222 487819.731 -101.287
139586.069 487819.998 -101.378
139586.031 487819.772 -101.295
139586.310 487819.863 -101.239
139586.171 487820.038 -101.369
139586.071 487820.077 -101.381
139586.096 487819.776 -101.327
139586.379 487820.101 -101.237
139586.065 487819.982 -101.368
139586.273 487820.147 -101.235
139586.319 487819.831 -101.249
139586.442 487820.131 -101.242
139586.115 487819.749 -101.339
139586.434 487820.133 -101.242
139586.098 487819.933 -101.341
139586.021 487819.823 -101.300
139586.119 487820.180 -101.301
139586.061 487820.000 -101.376
139586.176 487820.058 -101.359
139586.324 487819.896 -101.234
139586.311 487819.855 -101.245
139586.336 487819.819 -101.258
139586.231 487819.734 -101.281
139586.251 487820.161 -101.254
139586.242 487820.122 -101.254
139586.237 487820.207 -101.248
139586.201 487820.222 -101.261
139586.200 487820.065 -101.340
139586.176 487820.139 -101.308
139586.110 487820.227 -101.257
139586.137 487820.151 -101.313
139586.043 487819.812 -101.306
139586.190 487819.944 -101.263
139586.207 487819.993 -101.292
139586.096 487819.754 -101.339
139585.997 487819.736 -101.257
139586.124 487820.110 -101.354
139586.023 487820.004 -101.379
139586.383 487819.751 -101.248
139586.264 487820.180 -101.233
139585.984 487819.808 -101.285
139586.064 487819.819 -101.316
139586.125 487820.208 -101.277
139586.378 487819.740 -101.236
139586.330 487819.794 -101.241
139586.137 487820.071 -101.367
139586.235 487820.072 -101.235
139586.030 487819.860 -101.298
139586.179 487819.991 -101.369
139585.974 487819.732 -101.241
139586.164 487819.929 -101.275
139586.191 487820.192 -101.277
139586.111 487819.894 -101.276
139586.086 487819.814 -101.319
139586.155 487820.066 -101.362
139586.109 487820.208 -101.269
139586.228 487820.078 -101.254
139586.201 487819.991 -101.331
139586.334 487819.813 -101.253
139585.976 487819.743 -101.252
139586.242 487820.075 -101.230
139586.391 487819.934 -101.245
139586.155 487819.951 -101.361
139585.987 487819.776 -101.282
139586.006 487819.726 -101.271
139586.434 487819.727 -101.238
139586.361 487819.921 -101.246
139586.097 487819.767 -101.333
139586.031 487820.005 -101.376
139586.083 487819.905 -101.332
139586.249 487820.154 -101.257
139586.374 487819.791 -101.265
139586.196 487820.166 -101.287
139586.256 487820.204 -101.232
139586.121 487819.927 -101.336
139586.138 487820.135 -101.325
139586.121 487820.053 -101.371
139586.418 487819.789 -101.273
139586.089 487820.105 -101.371
139585.994 487819.873 -101.278
139586.044 487820.082 -101.403
139586.091 487820.239 -101.251
139586.022 487819.875 -101.291
139586.233 487820.062 -101.241
139586.192 487820.102 -101.324
139586.114 487819.849 -101.273
139586.102 487819.950 -101.359
139586.214 487819.744 -101.286
139586.060 487819.742 -101.319
139586.185 487819.773 -101.274
139586.100 487820.229 -101.254
139586.022 487819.727 -101.459
139586.345 487819.812 -101.261
139586.250 487820.181 -101.247
139586.297 487819.740 -101.231
139586.282 487819.783 -101.234
139586.225 487820.067 -101.252
139586.190 487819.944 -101.263
139586.207 487819.990 -101.293
139586.246 487820.141 -101.258
139586.046 487819.755 -101.302
139585.998 487819.730 -101.252
139586.154 487819.945 -101.351
139586.097 487820.059 -101.377
139586.108 487819.862 -101.318
139586.453 487820.129 -101.242
139586.178 487819.744 -101.314
139586.199 487820.212 -101.268
139586.254 487820.174 -101.245
139585.988 487819.860 -101.277
139586.355 487819.772 -101.245
139586.123 487819.782 -101.318
139586.181 487819.990 -101.366
139586.223 487820.103 -101.288
139586.302 487819.727 -101.270
139586.213 487820.004 -101.275
139586.195 487819.967 -101.330
139586.329 487819.871 -101.260
139586.194 487820.042 -101.352
139586.212 487820.219 -101.259
139586.122 487819.745 -101.339
139586.128 487819.920 -101.301
139586.172 487820.091 -101.338
139586.121 487819.927 -101.336
139586.009 487819.823 -101.298
139586.084 487820.255 -101.253
139586.193 487820.199 -101.274
139586.244 487820.086 -101.234
139586.196 487819.751 -101.289
139586.189 487820.021 -101.362
139586.421 487819.788 -101.270
139586.242 487820.075 -101.230
139586.234 487820.170 -101.270
139586.018 487819.890 -101.296
139586.211 487820.089 -101.313
139586.036 487819.794 -101.305
139586.152 487819.765 -101.327
139586.373 487819.800 -101.267
139586.365 487819.767 -101.248
139586.003 487819.738 -101.271
139586.453 487819.738 -101.229
139586.361 487819.750 -101.232
139586.421 487820.125 -101.243
139586.195 487819.965 -101.286
139586.401 487819.729 -101.239
139585.983 487819.772 -101.277
139586.142 487819.930 -101.333
139586.389 487819.764 -101.258
139586.156 487819.919 -101.344
139586.117 487820.244 -101.250
139586.342 487819.765 -101.232
139585.972 487819.727 -101.236
139586.218 487820.127 -101.289
139586.185 487820.180 -101.283
139586.115 487819.925 -101.333
139586.350 487819.911 -101.252
139586.038 487819.768 -101.298
139586.147 487820.192 -101.289
139586.342 487819.925 -101.232
139586.244 487819.728 -101.279
139586.194 487819.974 -101.340
139586.399 487819.759 -101.256
139586.361 487819.773 -101.250
139586.326 487819.827 -101.255
139586.207 487820.095 -101.316
139586.152 487820.053 -101.368
139586.130 487820.145 -101.325
139586.110 487820.067 -101.373
139585.997 487819.828 -101.289
139586.259 487820.192 -101.233
139586.112 487820.224 -101.260
139586.247 487820.166 -101.259
139586.218 487820.083 -101.297
139586.204 487820.039 -101.339
139586.292 487819.811 -101.232
139586.233 487820.111 -101.274
139586.278 487819.776 -101.235
139586.182 487819.958 -101.344
139585.987 487819.741 -101.254
139586.025 487819.863 -101.295
139585.986 487819.819 -101.287
139586.321 487819.805 -101.243
139586.127 487819.765 -101.327
139586.343 487819.928 -101.229
139586.355 487819.807 -101.264
139586.297 487819.810 -101.235
139586.174 487819.935 -101.237
139586.346 487819.930 -101.232
139586.298 487819.765 -101.235
139586.390 487819.767 -101.261
139586.157 487819.913 -101.347
139586.114 487819.873 -101.260
139586.106 487819.828 -101.312
139586.010 487819.743 -101.278
139586.316 487819.795 -101.236
139586.040 487820.074 -101.404
139586.240 487820.102 -101.249
139586.088 487819.938 -101.341
139586.175 487819.733 -101.318
139586.189 487819.962 -101.306
139586.092 487819.747 -101.342
139586.044 487819.895 -101.339
139586.028 487819.855 -101.298
139586.218 487820.037 -101.238
139586.125 487820.243 -101.256
139586.226 487820.138 -101.277
139586.398 487820.123 -101.249
139586.255 487820.166 -101.248
139586.353 487819.936 -101.231
139586.244 487820.142 -101.261
139586.355 487819.760 -101.237
139586.406 487820.121 -101.249
139586.427 487820.138 -101.242
139586.356 487819.928 -101.237
139586.342 487819.765 -101.232
139586.133 487819.917 -101.279
139586.242 487820.075 -101.230
139586.233 487820.100 -101.266
139586.246 487819.738 -101.276
139586.297 487819.728 -101.267
139586.405 487819.784 -101.273
139586.174 487819.777 -101.299
139586.327 487819.783 -101.233
139586.285 487819.793 -101.231
139586.073 487819.773 -101.322
139586.281 487819.836 -101.231
139586.214 487820.137 -101.291
139586.200 487820.043 -101.344
139586.179 487820.151 -101.302
139586.091 487819.777 -101.327
139586.082 487819.917 -101.334
139586.326 487819.861 -101.261
139586.127 487820.122 -101.345
139586.059 487819.969 -101.361
139586.046 487819.984 -101.366
139586.228 487820.204 -101.254
139586.208 487820.122 -101.303
139586.383 487819.727 -101.231
139586.109 487819.886 -101.314
139586.004 487819.835 -101.292
139586.016 487819.756 -101.286
139585.333 487819.730 -101.394
139585.251 487819.739 -101.275
139585.241 487819.730 -101.262
139585.251 487819.728 -101.276
139585.326 487819.735 -101.400
139585.285 487819.729 -101.286
139585.262 487819.737 -101.281
139585.277 487819.731 -101.283
139586.845 487820.316 -101.154
139586.980 487820.320 -101.114
139587.313 487820.230 -101.154
139587.185 487820.266 -101.224
139586.843 487820.363 -101.143
139586.869 487820.070 -101.129
139587.447 487820.170 -101.197
139587.429 487820.155 -101.206
139586.870 487820.083 -101.114
139586.903 487820.094 -101.141
139587.323 487820.203 -101.155
139586.834 487820.362 -101.138
139586.839 487820.291 -101.140
139586.879 487820.284 -101.131
139586.921 487820.271 -101.140
139586.940 487820.061 -101.167
139586.931 487820.335 -101.127
139587.269 487820.241 -101.200
139586.943 487820.338 -101.119
139586.976 487820.301 -101.148
139586.950 487820.056 -101.208
139586.910 487820.077 -101.212
139586.999 487820.261 -101.180
139586.837 487820.248 -101.115
139586.873 487820.294 -101.136
139586.916 487820.284 -101.136
139586.926 487820.326 -101.136
139586.966 487820.308 -101.140
139587.342 487820.211 -101.138
139586.815 487820.260 -101.131
139586.869 487820.286 -101.134
139586.913 487820.273 -101.134
139587.010 487820.295 -101.140
139586.930 487820.054 -101.151
139586.891 487820.092 -101.122
139586.821 487820.308 -101.150
139587.334 487820.213 -101.146
139586.928 487820.083 -101.157
139586.872 487820.195 -101.197
139587.470 487820.160 -101.181
139586.858 487820.232 -101.124
139586.831 487820.350 -101.150
139586.942 487820.301 -101.149
139586.838 487820.242 -101.113
139586.901 487820.074 -101.139
139586.877 487820.342 -101.150
139586.926 487820.270 -101.142
139586.893 487820.087 -101.177
139586.883 487820.091 -101.149
139586.884 487820.086 -101.128
139586.921 487820.078 -101.133
139586.887 487820.270 -101.127
139587.388 487820.213 -101.121
139586.861 487820.254 -101.120
139587.444 487820.158 -101.211
139586.839 487820.337 -101.159
139586.911 487820.265 -101.132
139586.991 487820.320 -101.114
139586.918 487820.085 -101.146
139586.867 487820.198 -101.194
139586.837 487820.237 -101.119
139586.825 487820.278 -101.138
139586.876 487820.305 -101.141
139586.918 487820.294 -101.136
139586.928 487820.334 -101.133
139586.981 487820.312 -101.126
139587.021 487820.303 -101.131
139586.906 487820.081 -101.136
139587.001 487820.268 -101.177
139587.057 487820.302 -101.133
139587.432 487820.168 -101.197
139586.972 487820.319 -101.117
139586.967 487820.311 -101.137
139586.819 487820.265 -101.133
139586.931 487820.300 -101.143
139587.478 487820.148 -101.189
139586.875 487820.072 -101.131
139586.850 487820.289 -101.140
139586.903 487820.255 -101.127
139586.935 487820.075 -101.141
139586.881 487820.233 -101.127
139587.348 487820.221 -101.135
139587.304 487820.216 -101.157
139586.855 487820.068 -101.129
139586.788 487820.095 -101.197
139586.894 487820.090 -101.171
139586.842 487820.258 -101.123
139586.840 487820.262 -101.125
139586.880 487820.091 -101.149
139586.831 487820.244 -101.113
139586.870 487820.083 -101.114
139586.827 487820.254 -101.120
139586.861 487820.289 -101.137
139587.275 487820.224 -101.212
139586.913 487820.318 -101.140
139586.850 487820.335 -101.159
139586.952 487820.329 -101.114
139587.436 487820.170 -101.197
139587.479 487820.164 -101.177
139587.303 487820.222 -101.157
139586.827 487820.297 -101.145
139587.007 487820.290 -101.148
139587.311 487820.209 -101.155
139587.285 487820.228 -101.181
139587.288 487820.229 -101.173
139587.437 487820.143 -101.217
139586.863 487820.343 -101.155
139586.818 487820.250 -101.118
139587.428 487820.174 -101.188
139586.921 487820.064 -101.145
139586.992 487820.322 -101.106
139587.324 487820.227 -101.145
139586.826 487820.251 -101.118
139587.298 487820.213 -101.169
139587.403 487820.092 -101.210
139587.278 487820.236 -101.189
139586.868 487820.352 -101.152
139587.299 487820.207 -101.172
139587.465 487820.153 -101.214
139586.923 487820.085 -101.163
139586.867 487820.198 -101.194
139586.869 487820.241 -101.118
139586.856 487820.281 -101.135
