x,y,z,red,green,blue
134945.383,521775.97,-37.41,,,
134945.795,521775.554,-37.403999999999996,,,
134945.509,521776.046,-37.416,,,
134946.102,521776.452,-37.416,,,
134946.345,521776.608,-37.4,,,
134946.476,521776.69,-37.386,,,
134945.202,521776.54,-37.400999999999996,,,
134945.247,521776.734,-37.403,,,
134945.687,521776.31,-37.414,,,
134946.185,521775.783,-37.402,,,
134944.695,521776.261,-37.396,,,
134945.561,521776.713,-37.413,,,
134945.918,521775.656,-37.417,,,
134944.998,521775.477,-37.44,,,
134945.405,521775.384,-37.43,,,
134945.524,521775.465,-37.427,,,
134945.35,521776.031,-37.426,,,
134946.157,521775.76,-37.414,,,
134946.345,521776.563,-37.403,,,
134946.697,521776.263,-37.411,,,
134945.609,521776.702,-37.429,,,
134946.062,521776.265,-37.413,,,
134946.539,521776.518,-37.394,,,
134946.584,521776.713,-37.405,,,
134945.478,521775.689,-37.478,,,
134946.283,521775.971,-37.400999999999996,,,
134946.266,521776.009,-37.427,,,
134946.155,521776.447,-37.422,,,
134945.227,521775.869,-37.39,,,
134946.596,521776.085,-37.384,,,
134946.623,521776.24,-37.417,,,
134945.958,521776.277,-37.427,,,
134945.884,521776.404,-37.441,,,
134946.165,521776.235,-37.427,,,
134944.181,521775.989,-37.4,,,
134944.994,521775.502,-37.429,,,
134945.232,521775.665,-37.44,,,
134944.503,521776.008,-37.397,,,
134944.428,521776.134,-37.402,,,
134944.85,521775.732,-37.386,,,
134944.542,521776.209,-37.418,,,
134944.672,521776.291,-37.403999999999996,,,
134945.178,521775.76,-37.41,,,
134945.372,521775.715,-37.41,,,
134945.222,521775.953,-37.394,,,
134944.686,521776.818,-37.413,,,
134945.781,521775.611,-37.41,,,
134945.243,521776.474,-37.403,,,
134945.668,521776.061,-37.405,,,
134945.6,521776.181,-37.400999999999996,,,
134945.714,521776.255,-37.407,,,
134945.408,521776.751,-37.419,,,
134946.545,521776.151,-37.419,,,
134946.271,521775.911,-37.397,,,
134946.246,521776.642,-37.431,,,
134944.885,521775.479,-37.400999999999996,,,
134944.992,521775.559,-37.416,,,
134944.423,521776.218,-37.406,,,
134944.923,521775.678,-37.394,,,
134944.843,521775.797,-37.409,,,
134944.662,521776.368,-37.409,,,
134945.249,521775.718,-37.408,,,
134945.167,521775.835,-37.396,,,
134944.344,521776.129,-37.408,,,
134944.976,521775.673,-37.409,,,
134944.47,521776.205,-37.403999999999996,,,
134944.895,521775.791,-37.406,,,
134945.296,521775.705,-37.406,,,
134945.221,521775.817,-37.394,,,
134944.713,521776.361,-37.388,,,
134945.141,521775.935,-37.4,,,
134945.75,521775.509,-37.41,,,
134945.084,521776.595,-37.403999999999996,,,
134945.71,521776.131,-37.398,,,
134945.643,521776.252,-37.412,,,
134944.783,521776.437,-37.415,,,
134945.04,521776.596,-37.416,,,
134945.538,521776.069,-37.412,,,
134945.158,521776.676,-37.403,,,
134945.665,521776.131,-37.4,,,
134945.284,521776.752,-37.409,,,
134946.214,521775.806,-37.398,,,
134944.837,521775.625,-37.367,,,
134945.33,521775.766,-37.373,,,
134946.052,521776.296,-37.411,,,
134945.966,521776.407,-37.418,,,
134946.411,521776.514,-37.411,,,
134946.335,521776.639,-37.398,,,
134946.76,521776.226,-37.4,,,
134946.453,521776.72,-37.395,,,
134945.943,521776.437,-37.426,,,
134945.871,521775.668,-37.41,,,
134945.439,521775.324,-37.423,,,
134945.216,521775.689,-37.439,,,
134945.286,521775.212,-37.422,,,
134946.493,521776.653,-37.378,,,
134946.548,521776.635,-37.376,,,
134946.081,521776.364,-37.405,,,
134946.558,521776.14,-37.409,,,
134946.328,521776.51,-37.416,,,
134946.683,521776.215,-37.397,,,
134946.457,521776.59,-37.385,,,
134946.578,521776.659,-37.391,,,
134946.498,521776.779,-37.415,,,
134946.823,521776.818,-37.411,,,
134945.251,521775.286,-37.437,,,
134944.293,521776.571,-37.435,,,
134945.376,521775.361,-37.434,,,
134945.353,521775.675,-37.423,,,
134945.739,521775.599,-37.423,,,
134945.379,521776.728,-37.423,,,
134945.58,521776.678,-37.432,,,
134946.633,521776.149,-37.386,,,
134946.109,521776.252,-37.411,,,
134944.933,521776.276,-37.407,,,
134946.387,521776.678,-37.392,,,
134946.867,521776.335,-37.468,,,
134945.349,521775.82,-37.368,,,
134944.842,521775.542,-37.372,,,
134944.774,521775.662,-37.368,,,
134945.332,521775.843,-37.367,,,
134945.353,521775.945,-37.395,,,
134945.777,521775.545,-37.406,,,
134946.0,521776.257,-37.426,,,
134945.93,521776.39,-37.43,,,
134946.378,521776.756,-37.406,,,
134945.227,521775.269,-37.431,,,
134945.316,521775.657,-37.426,,,
134944.659,521776.453,-37.439,,,
134945.71,521775.576,-37.435,,,
134945.55,521776.668,-37.435,,,
134946.332,521775.946,-37.409,,,
134946.099,521776.328,-37.406,,,
134946.574,521776.115,-37.392,,,
134946.27,521776.599,-37.414,,,
134946.707,521776.186,-37.397,,,
134946.469,521776.547,-37.387,,,
134946.521,521776.75,-37.407,,,
134945.899,521776.38,-37.433,,,
134946.317,521776.795,-37.443,,,
134946.842,521776.783,-37.43,,,
134945.577,521776.21,-37.4,,,
134945.225,521776.511,-37.400999999999996,,,
134945.265,521776.698,-37.413,,,
134946.224,521775.984,-37.422,,,
134946.594,521776.217,-37.42,,,
134944.915,521776.312,-37.406,,,
134946.377,521776.71,-37.4,,,
134946.485,521776.613,-37.373,,,
134945.303,521775.279,-37.426,,,
134945.423,521775.348,-37.423,,,
134944.734,521776.463,-37.425,,,
134944.845,521775.666,-37.372,,,
134945.296,521775.78,-37.374,,,
134944.881,521776.714,-37.499,,,
134945.426,521776.715,-37.421,,,
134944.401,521776.04,-37.400999999999996,,,
134944.914,521775.502,-37.398,,,
134944.447,521776.234,-37.412,,,
134945.279,521775.728,-37.397,,,
134944.69,521776.39,-37.396,,,
134945.126,521775.96,-37.417,,,
134945.41,521775.81,-37.392,,,
134944.892,521776.341,-37.406,,,
134945.322,521775.934,-37.389,,,
134945.748,521775.522,-37.409,,,
134945.874,521775.598,-37.415,,,
134945.569,521776.08,-37.41,,,
134945.068,521776.618,-37.403,,,
134945.694,521776.155,-37.397,,,
134946.238,521775.822,-37.396,,,
134945.514,521776.726,-37.414,,,
134945.898,521775.614,-37.412,,,
134945.173,521776.517,-37.413,,,
134945.097,521776.642,-37.4,,,
134945.286,521776.591,-37.41,,,
134945.724,521776.178,-37.403,,,
134946.155,521775.773,-37.413,,,
134946.627,521776.096,-37.381,,,
134946.328,521775.881,-37.405,,,
134946.268,521775.996,-37.419,,,
134945.603,521776.784,-37.405,,,
134946.028,521776.37,-37.408,,,
134946.52,521776.554,-37.384,,,
134946.573,521776.024,-37.389,,,
134946.637,521776.228,-37.408,,,
134946.331,521776.723,-37.411,,,
134944.495,521775.968,-37.391,,,
134944.927,521775.549,-37.394,,,
134945.524,521775.406,-37.413,,,
134944.704,521776.439,-37.41,,,
134945.209,521775.905,-37.389,,,
134945.415,521775.863,-37.388,,,
134945.33,521775.975,-37.403999999999996,,,
134945.768,521775.563,-37.405,,,
134945.231,521776.428,-37.416,,,
134945.155,521776.553,-37.412,,,
134945.082,521776.666,-37.408,,,
134945.575,521776.132,-37.406,,,
134945.2,521776.747,-37.405,,,
134945.7,521776.208,-37.402,,,
134946.258,521775.864,-37.392,,,
134945.359,521775.789,-37.369,,,
134945.299,521775.904,-37.383,,,
134946.605,521776.56,-37.405,,,
134946.521,521776.69,-37.383,,,
134945.446,521775.318,-37.423,,,
134944.336,521776.089,-37.402,,,
134944.457,521776.157,-37.399,,,
134944.88,521775.756,-37.400999999999996,,,
134944.7,521776.314,-37.392,,,
134945.208,521775.77,-37.398,,,
134945.133,521775.895,-37.394,,,
134946.245,521775.817,-37.396,,,
134944.902,521776.265,-37.400999999999996,,,
134945.273,521776.498,-37.408,,,
134945.697,521776.084,-37.402,,,
134945.124,521776.737,-37.41,,,
134945.624,521776.197,-37.398,,,
134945.743,521776.278,-37.403999999999996,,,
134945.443,521776.768,-37.407,,,
134944.848,521775.595,-37.368,,,
134944.788,521776.235,-37.383,,,
134945.346,521775.891,-37.372,,,
134945.028,521775.501,-37.445,,,
134945.434,521775.408,-37.427,,,
134945.286,521775.647,-37.438,,,
134945.5,521776.123,-37.429,,,
134946.43,521776.479,-37.43,,,
134946.919,521776.794,-37.434,,,
134945.302,521775.833,-37.37,,,
134945.024,521775.526,-37.435,,,
134944.205,521776.559,-37.451,,,
134945.262,521775.675,-37.428,,,
134944.985,521776.688,-37.458,,,
134944.894,521776.762,-37.504,,,
134946.672,521776.095,-37.378,,,
134945.253,521775.214,-37.424,,,
134946.539,521776.099,-37.422,,,
134946.293,521776.779,-37.446,,,
134946.811,521776.772,-37.433,,,
134945.538,521776.743,-37.412,,,
134945.138,521776.5,-37.425,,,
134944.861,521775.642,-37.373,,,
134945.307,521775.75,-37.375,,,
134946.301,521775.935,-37.403,,,
134946.401,521776.726,-37.397,,,
134946.075,521776.311,-37.4,,,
134946.546,521776.093,-37.413,,,
134946.683,521776.169,-37.391,,,
134946.439,521776.537,-37.399,,,
134946.364,521776.662,-37.395,,,
134946.49,521776.739,-37.409,,,
134946.556,521776.617,-37.377,,,
134946.578,521776.525,-37.409,,,
134946.437,521776.744,-37.403,,,
134944.806,521775.524,-37.375,,,
134946.47,521776.637,-37.381,,,
134946.234,521776.581,-37.426,,,
134944.458,521775.95,-37.395,,,
134944.89,521775.53,-37.388,,,
134944.383,521776.076,-37.4,,,
134944.937,521775.726,-37.408,,,
134945.255,521775.756,-37.387,,,
134944.681,521776.422,-37.413,,,
134945.18,521775.882,-37.392,,,
134944.95,521776.252,-37.408,,,
134945.306,521775.958,-37.397,,,
134945.74,521775.54,-37.418,,,
134945.857,521775.621,-37.405,,,
134945.126,521776.53,-37.415,,,
134945.051,521776.655,-37.411,,,
134945.551,521776.116,-37.408,,,
134945.313,521776.491,-37.415,,,
134945.745,521776.072,-37.418,,,
134945.164,521776.729,-37.408,,,
134945.677,521776.191,-37.405,,,
134946.221,521775.846,-37.395,,,
134945.491,521776.756,-37.414,,,
134944.745,521775.639,-37.371,,,
134944.835,521775.757,-37.403,,,
134944.531,521776.24,-37.416,,,
134946.523,521776.123,-37.431,,,
134944.354,521776.053,-37.403,,,
134944.975,521775.582,-37.407,,,
134944.912,521775.709,-37.393,,,
134945.232,521775.741,-37.408,,,
134945.584,521775.44,-37.407,,,
134944.76,521776.466,-37.423,,,
134945.522,521776.093,-37.412,,,
134945.291,521776.462,-37.41,,,
134945.721,521776.056,-37.411,,,
134945.14,521776.712,-37.402,,,
134945.647,521776.168,-37.399,,,
134945.46,521776.745,-37.417,,,
134944.386,521776.753,-37.454,,,
134946.146,521776.27,-37.407,,,
134946.309,521776.545,-37.406,,,
134946.661,521776.244,-37.405,,,
134946.434,521776.62,-37.384,,,
134946.553,521776.702,-37.399,,,
134946.348,521775.923,-37.41,,,
134946.122,521776.299,-37.407,,,
134946.042,521776.418,-37.413,,,
134946.723,521776.161,-37.389,,,
134946.646,521776.269,-37.423,,,
134946.486,521776.524,-37.397,,,
134946.537,521776.726,-37.407,,,
134946.652,521776.203,-37.39,,,
134946.41,521776.559,-37.399,,,
134946.34,521776.691,-37.394,,,
134946.475,521776.763,-37.418,,,
134946.324,521775.906,-37.403,,,
134946.093,521776.275,-37.400999999999996,,,
134946.561,521776.068,-37.396,,,
134946.694,521776.138,-37.392,,,
134946.451,521776.507,-37.409,,,
134946.374,521776.631,-37.387,,,
134946.792,521776.807,-37.414,,,
134946.588,521776.583,-37.396,,,
134946.5,521776.707,-37.393,,,
134946.146,521776.316,-37.413,,,
134946.071,521776.441,-37.409,,,
134946.322,521776.592,-37.402,,,
134946.447,521776.667,-37.389,,,
134946.561,521776.743,-37.414,,,
134944.886,521776.288,-37.4,,,
134945.155,521775.789,-37.409,,,
134945.362,521775.732,-37.391,,,
134945.194,521775.975,-37.403,,,
134946.216,521775.793,-37.399,,,
134945.527,521776.009,-37.408,,,
134945.658,521776.092,-37.403,,,
134945.144,521776.629,-37.398,,,
134944.771,521775.583,-37.355,,,
134945.703,521776.286,-37.406,,,
134945.397,521776.782,-37.418,,,
134944.957,521775.484,-37.423,,,
134945.161,521776.815,-37.439,,,
134945.273,521775.255,-37.42,,,
134944.461,521776.283,-37.427,,,
134945.392,521775.338,-37.434,,,
134944.698,521776.445,-37.419,,,
134945.658,521776.002,-37.428,,,
134945.517,521776.25,-37.456,,,
134946.127,521775.795,-37.423,,,
134945.237,521775.237,-37.423,,,
134944.43,521776.272,-37.429,,,
134944.2,521776.642,-37.445,,,
134945.488,521775.389,-37.416,,,
134945.339,521775.642,-37.444,,,
134944.669,521776.421,-37.423,,,
134944.253,521776.623,-37.425,,,
134945.525,521776.231,-37.438,,,
134945.644,521776.298,-37.427,,,
134945.856,521775.588,-37.408,,,
134944.486,521776.181,-37.405,,,
134945.312,521775.682,-37.416,,,
134944.812,521776.206,-37.392,,,
134945.237,521775.793,-37.395,,,
134945.162,521775.918,-37.391,,,
134945.29,521775.982,-37.406,,,
134945.604,521776.02,-37.421,,,
134945.535,521776.14,-37.408,,,
134945.297,521776.515,-37.415,,,
134945.734,521776.102,-37.398,,,
134945.228,521776.635,-37.411,,,
134945.155,521776.747,-37.408,,,
134945.661,521776.216,-37.413,,,
134946.204,521775.882,-37.394,,,
134944.918,521775.762,-37.398,,,
134945.847,521775.652,-37.413,,,
134946.527,521776.593,-37.371,,,
134946.168,521776.494,-37.427,,,
134946.859,521776.76,-37.44,,,
134946.253,521775.947,-37.395,,,
134945.946,521776.366,-37.422,,,
134946.244,521776.714,-37.453,,,
134945.591,521776.737,-37.418,,,
134946.016,521776.323,-37.412,,,
134946.136,521776.392,-37.418,,,
134945.259,521775.971,-37.399,,,
134946.616,521776.186,-37.394,,,
134946.312,521776.669,-37.407,,,
134946.737,521776.255,-37.409,,,
134946.189,521776.252,-37.433,,,
134946.277,521776.652,-37.428,,,
134946.37,521776.775,-37.423,,,
134945.192,521776.616,-37.405,,,
134944.789,521775.547,-37.366,,,
134945.285,521775.856,-37.369,,,
134944.875,521776.798,-37.494,,,
134946.17,521776.287,-37.414,,,
134946.094,521776.412,-37.41,,,
134944.955,521775.496,-37.414,,,
134944.381,521776.147,-37.403999999999996,,,
134944.811,521775.74,-37.397,,,
134944.499,521776.229,-37.41,,,
134945.548,521775.377,-37.413,,,
134945.326,521775.715,-37.395,,,
134945.213,521775.221,-37.417,,,
134945.452,521775.371,-37.428,,,
134945.178,521775.954,-37.406,,,
134946.41,521776.649,-37.384,,,
134946.339,521776.764,-37.417,,,
134945.376,521775.915,-37.387,,,
134945.773,521775.525,-37.408,,,
134945.196,521776.487,-37.405,,,
134944.866,521775.559,-37.378,,,
134944.791,521775.684,-37.374,,,
134944.194,521776.59,-37.449,,,
134944.795,521776.452,-37.431,,,
134945.109,521776.477,-37.438,,,
134946.504,521776.622,-37.371,,,
134945.478,521776.709,-37.418,,,
134945.362,521775.867,-37.373,,,
134944.408,521776.303,-37.456,,,
134946.132,521776.476,-37.421,,,
134945.472,521776.791,-37.403999999999996,,,
134945.315,521775.88,-37.375,,,
134944.9,521776.814,-37.5,,,
134945.397,521776.018,-37.424,,,
134945.297,521775.227,-37.429,,,
134947.207,521775.017,-37.383,,,
134946.457,521775.407,-37.411,,,
134946.473,521774.559,-37.395,,,
134946.548,521774.448,-37.416,,,
134946.785,521774.072,-37.391,,,
134947.378,521775.092,-37.376,,,
134948.04,521774.092,-37.413,,,
134947.528,521774.526,-37.415,,,
134947.458,521775.183,-37.402,,,
134948.112,521775.76,-37.405,,,
134948.711,521775.23,-37.432,,,
134948.154,521775.56,-37.425,,,
134947.773,521776.181,-37.442,,,
134947.647,521776.105,-37.437,,,
134947.721,521775.993,-37.44,,,
134947.96,521775.618,-37.451,,,
134948.141,521775.048,-37.452,,,
134947.894,521774.889,-37.423,,,
134947.955,521774.25,-37.426,,,
134947.83,521774.174,-37.43,,,
134947.392,521774.586,-37.428,,,
134948.275,521775.09,-37.413,,,
134947.467,521774.461,-37.432,,,
134947.229,521774.311,-37.438,,,
134946.615,521775.3,-37.427,,,
134946.392,521775.665,-37.443,,,
134947.034,521774.354,-37.42,,,
134947.102,521774.234,-37.424,,,
134948.341,521774.444,-37.389,,,
134946.414,521775.35,-37.426,,,
134946.634,521774.441,-37.429,,,
134946.164,521775.186,-37.434,,,
134946.972,521775.831,-37.451,,,
134946.313,521774.423,-37.432,,,
134947.417,521775.922,-37.409,,,
134947.344,521776.036,-37.414,,,
134947.905,521774.857,-37.415,,,
134947.736,521773.766,-37.427,,,
134946.983,521774.706,-37.463,,,
134947.391,521775.14,-37.381,,,
134947.272,521775.058,-37.376,,,
134946.656,521774.681,-37.375,,,
134947.268,521775.142,-37.38,,,
134946.525,521774.689,-37.374,,,
134948.496,521775.351,-37.473,,,
134947.056,521774.113,-37.453,,,
134948.564,521775.366,-37.459,,,
134947.589,521776.118,-37.467,,,
134947.135,521774.112,-37.467,,,
134947.312,521775.815,-37.368,,,
134947.368,521775.169,-37.381,,,
134947.254,521775.095,-37.375,,,
134946.64,521774.705,-37.375,,,
134947.349,521775.069,-37.38,,,
134946.614,521774.611,-37.383,,,
134946.533,521774.728,-37.37,,,
134946.569,521774.747,-37.376,,,
134946.643,521774.634,-37.379,,,
134948.176,521775.588,-37.422,,,
134946.556,521774.699,-37.371,,,
134947.301,521775.082,-37.373,,,
134946.69,521776.059,-37.38,,,
134948.535,521775.343,-37.462,,,
134948.682,521775.342,-37.426,,,
134948.558,521775.268,-37.457,,,
134948.0,521775.597,-37.432,,,
134947.694,521776.092,-37.435,,,
134947.775,521775.975,-37.447,,,
134948.186,521775.034,-37.432,,,
134947.94,521774.889,-37.429,,,
134947.711,521775.246,-37.428,,,
134948.024,521774.744,-37.416,,,
134947.246,521775.997,-37.432,,,
134947.897,521774.683,-37.436,,,
134948.083,521774.118,-37.418,,,
134946.885,521775.76,-37.452,,,
134947.034,521775.507,-37.424,,,
134947.527,521774.449,-37.429,,,
134947.634,521774.006,-37.453,,,
134947.506,521773.928,-37.42,,,
134946.67,521775.282,-37.434,,,
134947.081,521774.341,-37.418,,,
134947.157,521774.216,-37.431,,,
134946.956,521774.267,-37.44,,,
134947.032,521774.141,-37.444,,,
134946.174,521774.974,-37.439,,,
134947.361,521776.133,-37.48,,,
134946.44,521774.815,-37.416,,,
134948.481,521775.376,-37.49,,,
134947.103,521774.101,-37.46,,,
134946.68,521774.698,-37.382,,,
134946.491,521774.748,-37.372,,,
134946.567,521774.623,-37.375,,,
134948.355,521774.492,-37.413,,,
134947.431,521775.971,-37.423,,,
134948.237,521774.411,-37.416,,,
134947.998,521774.785,-37.405,,,
134947.309,521775.9,-37.389,,,
134947.691,521775.281,-37.408,,,
134947.805,521774.83,-37.414,,,
134947.366,521775.241,-37.403,,,
134947.446,521775.123,-37.397,,,
134947.86,521774.184,-37.418,,,
134947.25,521775.179,-37.387,,,
134947.689,521773.914,-37.419,,,
134946.994,521775.021,-37.395,,,
134946.875,521774.94,-37.399,,,
134946.449,521775.366,-37.405,,,
134947.319,521773.681,-37.412,,,
134946.692,521774.144,-37.41,,,
134947.242,521775.048,-37.379,,,
134948.14,521775.647,-37.402,,,
134947.77,521775.414,-37.403999999999996,,,
134948.262,521774.355,-37.391,,,
134947.65,521775.346,-37.406,,,
134947.27,521775.954,-37.406,,,
134947.839,521774.77,-37.416,,,
134947.411,521775.195,-37.395,,,
134947.481,521775.063,-37.408,,,
134947.587,521774.619,-37.414,,,
134947.898,521774.13,-37.400999999999996,,,
134947.974,521774.005,-37.405,,,
134947.361,521774.995,-37.411,,,
134946.728,521775.989,-37.418,,,
134947.73,521773.848,-37.412,,,
134948.722,521775.199,-37.442,,,
134948.351,521774.966,-37.435,,,
134947.67,521776.076,-37.437,,,
134947.977,521775.582,-37.443,,,
134947.436,521775.932,-37.416,,,
134947.342,521776.049,-37.423,,,
134948.205,521774.369,-37.43,,,
134947.988,521774.727,-37.428,,,
134947.686,521775.229,-37.421,,,
134947.973,521774.213,-37.418,,,
134946.974,521775.817,-37.443,,,
134947.414,521774.556,-37.42,,,
134947.491,521774.431,-37.433,,,
134947.47,521773.91,-37.424,,,
134946.784,521775.013,-37.436,,,
134946.939,521774.769,-37.425,,,
134946.633,521775.264,-37.428,,,
134947.044,521774.323,-37.422,,,
134947.126,521774.206,-37.434,,,
134947.231,521773.76,-37.421,,,
134946.187,521775.156,-37.426,,,
134946.264,521775.032,-37.448,,,
134946.323,521774.391,-37.424,,,
134945.943,521775.0,-37.433,,,
134946.248,521774.517,-37.429,,,
134947.344,521775.152,-37.374,,,
134947.218,521775.076,-37.369,,,
134946.609,521774.693,-37.368,,,
134948.064,521775.637,-37.407,,,
134948.31,521774.433,-37.392,,,
134947.691,521775.415,-37.39,,,
134947.32,521776.019,-37.408,,,
134947.392,521775.905,-37.393,,,
134947.462,521775.787,-37.415,,,
134947.574,521775.336,-37.412,,,
134947.524,521775.134,-37.41,,,
134947.321,521775.182,-37.383,,,
134947.404,521775.052,-37.396,,,
134947.891,521774.0,-37.41,,,
134947.503,521774.613,-37.41,,,
134946.671,521775.973,-37.396,,,
134946.898,521775.598,-37.417,,,
134947.646,521773.843,-37.409,,,
134946.951,521774.949,-37.385,,,
134946.826,521774.875,-37.406,,,
134947.201,521773.735,-37.407,,,
134946.468,521774.643,-37.389,,,
134946.536,521774.523,-37.393,,,
134946.768,521774.154,-37.403999999999996,,,
134946.844,521774.029,-37.408,,,
134948.7,521775.306,-37.427,,,
134948.581,521775.239,-37.457,,,
134948.016,521775.573,-37.432,,,
134948.328,521775.085,-37.419,,,
134948.204,521774.997,-37.433,,,
134947.256,521775.965,-37.415,,,
134947.765,521774.898,-37.448,,,
134947.096,521775.679,-37.445,,,
134947.364,521774.984,-37.43,,,
134946.901,521775.722,-37.426,,,
134947.544,521774.426,-37.439,,,
134947.395,521774.665,-37.45,,,
134947.656,521773.975,-37.435,,,
134946.836,521775.007,-37.424,,,
134946.987,521774.756,-37.432,,,
134946.688,521775.246,-37.435,,,
134947.097,521774.317,-37.419,,,
134946.486,521775.295,-37.426,,,
134946.568,521775.178,-37.447,,,
134946.979,521774.237,-37.431,,,
134946.241,521775.138,-37.424,,,
134946.122,521775.07,-37.436,,,
134946.197,521774.945,-37.44,,,
134945.744,521774.842,-37.429,,,
134946.679,521775.669,-37.489,,,
134948.303,521774.977,-37.41,,,
134948.295,521774.457,-37.4,,,
134947.675,521775.439,-37.389,,,
134947.374,521775.941,-37.392,,,
134947.444,521775.809,-37.396,,,
134947.858,521774.87,-37.417,,,
134947.021,521775.804,-37.441,,,
134947.631,521775.246,-37.405,,,
134947.993,521774.105,-37.406,,,
134947.303,521775.219,-37.39,,,
134946.768,521776.072,-37.41,,,
134947.0,521775.703,-37.421,,,
134947.88,521774.031,-37.409,,,
134946.656,521775.984,-37.387,,,
134947.628,521773.879,-37.407,,,
134946.941,521774.981,-37.392,,,
134947.503,521773.804,-37.411,,,
134946.816,521774.906,-37.405,,,
134946.509,521775.4,-37.399,,,
134946.444,521774.672,-37.389,,,
134946.525,521774.554,-37.392,,,
134946.832,521774.059,-37.398,,,
134946.752,521774.178,-37.413,,,
134946.194,521774.522,-37.414,,,
134947.26,521775.012,-37.389,,,
134947.802,521775.516,-37.403999999999996,,,
134946.212,521774.485,-37.406,,,
134945.793,521774.906,-37.412,,,
134948.016,521774.076,-37.407,,,
134947.238,521775.118,-37.374,,,
134947.04,521774.962,-37.388,,,
134948.031,521775.757,-37.437,,,
134948.174,521774.987,-37.444,,,
134948.222,521774.332,-37.422,,,
134947.698,521775.199,-37.432,,,
134947.81,521774.747,-37.419,,,
134947.917,521774.304,-37.452,,,
134947.989,521774.189,-37.419,,,
134947.46,521775.035,-37.421,,,
134946.989,521775.793,-37.434,,,
134947.947,521773.97,-37.418,,,
134946.878,521775.707,-37.438,,,
134947.021,521775.461,-37.437,,,
134947.432,521774.52,-37.421,,,
134947.514,521774.403,-37.442,,,
134947.367,521774.643,-37.462,,,
134946.702,521775.43,-37.449,,,
134946.806,521774.983,-37.418,,,
134946.964,521774.741,-37.444,,,
134946.651,521775.228,-37.438,,,
134946.996,521774.409,-37.455,,,
134946.086,521775.053,-37.448,,,
134947.217,521774.386,-37.416,,,
134946.346,521774.362,-37.425,,,
134946.619,521774.528,-37.388,,,
134946.501,521774.461,-37.418,,,
134946.725,521774.083,-37.394,,,
134946.426,521774.572,-37.397,,,
134945.868,521774.916,-37.398,,,
134947.331,521775.105,-37.378,,,
134946.462,521774.785,-37.398,,,
134948.79,521775.364,-37.436,,,
134948.281,521774.41,-37.395,,,
134948.045,521774.773,-37.412,,,
134947.289,521776.008,-37.41,,,
134947.368,521775.888,-37.387,,,
134947.844,521774.823,-37.412,,,
134947.238,521775.806,-37.4,,,
134947.499,521775.118,-37.403999999999996,,,
134947.912,521774.178,-37.406,,,
134947.987,521774.052,-37.400999999999996,,,
134947.297,521775.166,-37.385,,,
134947.368,521775.034,-37.399,,,
134947.48,521774.597,-37.413,,,
134947.172,521775.09,-37.389,,,
134947.61,521773.825,-37.412,,,
134946.928,521774.934,-37.396,,,
134948.031,521775.068,-37.502,,,
134947.194,521775.06,-37.372,,,
134946.58,521774.67,-37.372,,,
134946.803,521774.859,-37.409,,,
134947.581,521776.078,-37.461,,,
134947.674,521776.26,-37.47,,,
134946.498,521775.341,-37.403999999999996,,,
134946.632,521774.575,-37.384,,,
134946.432,521774.625,-37.402,,,
134946.513,521774.507,-37.405,,,
134946.739,521774.13,-37.399,,,
134946.82,521774.013,-37.411,,,
134946.193,521774.475,-37.399,,,
134948.164,521775.618,-37.402,,,
134947.71,521775.515,-37.391,,,
134947.982,521774.81,-37.414,,,
134947.293,521775.924,-37.398,,,
134947.6,521775.43,-37.413,,,
134947.668,521775.31,-37.408,,,
134947.421,521775.164,-37.387,,,
134947.916,521774.094,-37.403,,,
134947.23,521775.197,-37.406,,,
134946.924,521775.692,-37.418,,,
134948.643,521775.395,-37.434,,,
134948.104,521775.584,-37.408,,,
134947.652,521775.469,-37.398,,,
134947.351,521775.97,-37.391,,,
134947.426,521775.845,-37.395,,,
134947.734,521775.351,-37.41,,,
134947.23,521775.871,-37.414,,,
134947.608,521775.275,-37.405,,,
134947.288,521775.243,-37.399,,,
134946.758,521776.103,-37.409,,,
134947.545,521774.548,-37.412,,,
134946.932,521775.538,-37.419,,,
134947.68,521773.783,-37.411,,,
134947.487,521773.828,-37.419,,,
134946.8,521774.93,-37.413,,,
134946.874,521774.817,-37.416,,,
134946.493,521775.424,-37.407,,,
134947.246,521773.676,-37.39,,,
134946.697,521774.54,-37.41,,,
134948.711,521775.275,-37.429,,,
134946.427,521774.709,-37.396,,,
134946.502,521774.583,-37.391,,,
134946.584,521774.465,-37.403,,,
134946.809,521774.088,-37.397,,,
134948.034,521775.537,-37.434,,,
134948.271,521775.175,-37.435,,,
134948.346,521775.049,-37.43,,,
134947.66,521776.153,-37.442,,,
134947.733,521776.039,-37.436,,,
134948.153,521775.095,-37.448,,,
134948.221,521774.974,-37.434,,,
134948.333,521774.523,-37.43,,,
134947.803,521775.382,-37.431,,,
134947.058,521776.288,-37.433,,,
134947.773,521774.879,-37.431,,,
134947.85,521774.74,-37.426,,,
134947.964,521774.291,-37.441,,,
134947.12,521775.651,-37.454,,,
134947.531,521774.709,-37.439,,,
134947.074,521775.456,-37.443,,,
134947.41,521774.64,-37.432,,,
134947.672,521773.951,-37.427,,,
134947.754,521773.82,-37.422,,,
134947.011,521774.728,-37.442,,,
134947.235,521774.35,-37.426,,,
134947.428,521773.794,-37.434,,,
134946.809,521774.777,-37.432,,,
134947.115,521774.281,-37.42,,,
134946.419,521775.402,-37.422,,,
134946.871,521774.125,-37.427,,,
134947.479,521774.507,-37.419,,,
134946.519,521774.425,-37.428,,,
134946.668,521774.187,-37.426,,,
134946.133,521775.039,-37.437,,,
134947.229,521774.446,-37.42,,,
134947.65,521776.244,-37.473,,,
134946.853,521774.969,-37.407,,,
134945.761,521774.805,-37.421,,,
134946.643,521774.499,-37.397,,,
134946.442,521774.549,-37.397,,,
134946.749,521774.054,-37.394,,,
134945.886,521774.88,-37.408,,,
134947.792,521774.783,-37.418,,,
134948.332,521775.001,-37.416,,,
134948.319,521774.474,-37.407,,,
134947.401,521775.946,-37.408,,,
134947.474,521775.833,-37.411,,,
134947.968,521774.775,-37.417,,,
134947.267,521775.875,-37.394,,,
134947.335,521775.23,-37.397,,,
134947.422,521775.105,-37.382,,,
134948.03,521774.123,-37.412,,,
134947.291,521775.023,-37.386,,,
134947.517,521774.661,-37.416,,,
134946.554,521775.46,-37.419,,,
134948.089,521775.744,-37.407,,,
134946.911,521775.645,-37.422,,,
134947.66,521773.89,-37.414,,,
134946.97,521775.004,-37.389,,,
134947.539,521773.821,-37.408,,,
134946.921,521774.804,-37.415,,,
134947.35,521775.206,-37.389,,,
134947.282,521773.662,-37.407,,,
134946.675,521774.645,-37.386,,,
134946.549,521774.57,-37.389,,,
134946.624,521774.459,-37.42,,,
134946.857,521774.076,-37.413,,,
134946.663,521774.12,-37.403999999999996,,,
134945.874,521774.834,-37.421,,,
134946.546,521774.776,-37.375,,,
134946.59,521774.639,-37.373,,,
134946.522,521774.759,-37.369,,,
134947.315,521774.995,-37.405,,,
134948.782,521775.324,-37.43,,,
134948.578,521775.354,-37.441,,,
134948.651,521775.241,-37.435,,,
134948.019,521775.697,-37.433,,,
134947.725,521776.194,-37.435,,,
134947.116,521776.334,-37.417,,,
134947.903,521774.256,-37.438,,,
134946.982,521775.74,-37.42,,,
134946.613,521775.507,-37.431,,,
134947.846,521774.137,-37.413,,,
134946.458,521775.752,-37.442,,,
134947.181,521774.323,-37.431,,,
134946.638,521775.181,-37.442,,,
134947.534,521774.624,-37.408,,,
134946.975,521774.367,-37.441,,,
134946.694,521775.989,-37.393,,,
134948.269,521775.038,-37.417,,,
134947.328,521776.0,-37.4,,,
134947.416,521775.876,-37.394,,,
134945.903,521774.722,-37.436,,,
134947.592,521775.299,-37.403999999999996,,,
134947.675,521773.866,-37.405,,,
134946.987,521774.967,-37.381,,,
134947.959,521774.165,-37.413,,,
134947.273,521775.268,-37.416,,,
134947.069,521774.85,-37.393,,,
134947.841,521774.084,-37.417,,,
134947.557,521773.786,-37.418,,,
134946.916,521775.562,-37.418,,,
134946.975,521774.921,-37.394,,,
134947.664,521773.807,-37.41,,,
134947.223,521773.705,-37.389,,,
134946.863,521774.893,-37.403,,,
134946.686,521774.57,-37.399,,,
134946.484,521774.619,-37.39,,,
134946.56,521774.494,-37.403,,,
134946.791,521774.125,-37.396,,,
134946.412,521774.733,-37.414,,,
134946.235,521774.456,-37.407,,,
134946.54,521775.411,-37.405,,,
134947.17,521774.399,-37.418,,,
134948.18,521775.789,-37.408,,,
134948.127,521775.6,-37.406,,,
134948.309,521775.03,-37.415,,,
134948.31,521774.493,-37.415,,,
134947.383,521775.982,-37.407,,,
134947.458,521775.856,-37.400999999999996,,,
134947.262,521775.913,-37.4,,,
134947.644,521775.293,-37.400999999999996,,,
134947.885,521774.083,-37.405,,,
134947.579,521774.578,-37.408,,,
134946.968,521775.556,-37.415,,,
134947.515,521773.85,-37.407,,,
134946.829,521774.953,-37.41,,,
134946.909,521774.835,-37.403999999999996,,,
134946.721,521774.556,-37.416,,,
134948.13,521775.678,-37.4,,,
134946.45,521774.724,-37.385,,,
134947.225,521773.752,-37.413,,,
134946.531,521774.606,-37.388,,,
134946.607,521774.481,-37.400999999999996,,,
134946.834,521774.106,-37.413,,,
134947.305,521773.633,-37.407,,,
134948.311,521775.108,-37.419,,,
134946.699,521774.617,-37.395,,,
134946.491,521774.659,-37.387,,,
134945.863,521774.864,-37.411,,,
134948.245,521774.393,-37.408,,,
134948.034,521774.039,-37.408,,,
134947.633,521775.369,-37.397,,,
134946.572,521774.541,-37.39,,,
134948.015,521774.762,-37.415,,,
134947.26,521775.985,-37.414,,,
134947.388,521775.225,-37.403,,,
134947.47,521775.094,-37.398,,,
134946.873,521774.053,-37.414,,,
134947.344,521775.017,-37.393,,,
134947.571,521774.642,-37.413,,,
134947.875,521774.16,-37.41,,,
134946.726,521776.0,-37.4,,,
134947.444,521774.579,-37.416,,,
134947.017,521774.991,-37.387,,,
134947.092,521774.866,-37.391,,,
134947.706,521773.877,-37.412,,,
134947.586,521773.809,-37.415,,,
134946.892,521774.916,-37.4,,,
134946.968,521774.791,-37.413,,,
134947.199,521774.422,-37.415,,,
134946.474,521775.325,-37.406,,,
134947.335,521773.657,-37.413,,,
134947.367,521775.123,-37.375,,,
134946.601,521774.564,-37.387,,,
134946.679,521774.096,-37.403999999999996,,,
134946.484,521774.484,-37.408,,,
134946.708,521774.12,-37.400999999999996,,,
134945.845,521774.945,-37.397,,,
134946.627,521774.657,-37.37,,,
134948.176,521775.665,-37.398,,,
134947.732,521775.559,-37.414,,,
134947.686,521775.364,-37.403,,,
134947.292,521775.982,-37.403,,,
134947.606,521775.483,-37.418,,,
134947.561,521775.288,-37.407,,,
134947.518,521775.082,-37.414,,,
134947.435,521775.212,-37.400999999999996,,,
134947.496,521774.574,-37.414,,,
134947.56,521773.909,-37.409,,,
134947.633,521773.796,-37.413,,,
134946.939,521774.903,-37.398,,,
134946.821,521774.823,-37.419,,,
134946.455,521774.596,-37.393,,,
134946.531,521774.471,-37.406,,,
134946.761,521774.101,-37.39,,,
134945.892,521774.933,-37.403999999999996,,,
134946.209,521774.452,-37.4,,,
134945.78,521774.859,-37.416,,,
134946.491,521774.808,-37.395,,,
134948.003,521774.028,-37.402,,,
134947.284,521775.118,-37.38,,,
134948.747,521775.293,-37.425,,,
134948.628,521775.225,-37.446,,,
134948.37,521775.066,-37.436,,,
134947.689,521776.176,-37.439,,,
134947.765,521776.051,-37.442,,,
134947.996,521775.681,-37.435,,,
134948.176,521775.11,-37.436,,,
134948.363,521774.547,-37.436,,,
134948.011,521774.847,-37.428,,,
134947.093,521776.319,-37.429,,,
134947.804,521774.889,-37.428,,,
134947.867,521774.238,-37.441,,,
134947.561,521774.733,-37.444,,,
134947.105,521775.466,-37.44,,,
134947.441,521774.651,-37.43,,,
134946.903,521775.515,-37.422,,,
134947.778,521773.836,-37.428,,,
134947.04,521774.751,-37.438,,,
134946.433,521775.735,-37.426,,,
134946.589,521775.491,-37.424,,,
134947.451,521773.81,-37.423,,,
134946.84,521774.788,-37.43,,,
134946.533,521775.283,-37.433,,,
134947.026,521774.224,-37.429,,,
134945.821,521774.929,-37.4,,,
134946.215,521775.253,-37.454,,,
134946.238,521774.938,-37.447,,,
134945.924,521774.899,-37.423,,,
134948.38,521774.509,-37.419,,,
134948.266,521774.435,-37.413,,,
134948.027,521774.809,-37.411,,,
134947.414,521775.798,-37.399,,,
134947.716,521775.297,-37.415,,,
134947.332,521775.916,-37.387,,,
134947.828,521774.846,-37.411,,,
134947.476,521775.147,-37.403,,,
134947.889,521774.207,-37.415,,,
134947.969,521774.088,-37.4,,,
134946.731,521776.053,-37.396,,,
134947.464,521774.621,-37.412,,,
134947.031,521775.039,-37.400999999999996,,,
134947.11,521774.92,-37.386,,,
134947.599,521773.856,-37.411,,,
134946.601,521775.447,-37.418,,,
134946.792,521774.89,-37.407,,,
134946.48,521775.377,-37.402,,,
134946.489,521774.536,-37.395,,,
134946.716,521774.16,-37.407,,,
134946.796,521774.041,-37.400999999999996,,,
134946.17,521774.505,-37.407,,,
134948.607,521775.377,-37.437,,,
134948.687,521775.259,-37.431,,,
134948.048,521775.72,-37.421,,,
134948.011,521775.521,-37.436,,,
134948.31,521774.507,-37.433,,,
134947.766,521775.363,-37.425,,,
134947.035,521776.273,-37.444,,,
134947.932,521774.279,-37.434,,,
134947.014,521775.751,-37.426,,,
134946.888,521775.675,-37.43,,,
134947.038,521775.438,-37.446,,,
134947.45,521774.484,-37.422,,,
134947.382,521774.618,-37.445,,,
134946.719,521775.407,-37.449,,,
134947.212,521774.334,-37.429,,,
134947.011,521774.384,-37.438,,,
134947.086,521774.258,-37.423,,,
134948.512,521775.327,-37.465,,,
134948.134,521775.099,-37.458,,,
134947.768,521775.71,-37.484,,,
134948.617,521775.301,-37.433,,,
134947.836,521776.009,-37.45,,,
134948.322,521774.942,-37.43,,,
134947.311,521776.038,-37.416,,,
134947.77,521775.293,-37.439,,,
134948.182,521774.353,-37.442,,,
134947.957,521774.717,-37.431,,,
134947.645,521775.204,-37.425,,,
134947.763,521774.76,-37.421,,,
134946.945,521775.794,-37.446,,,
134947.46,521774.421,-37.435,,,
134947.521,521773.768,-37.421,,,
134946.76,521774.997,-37.438,,,
134946.916,521774.753,-37.436,,,
134947.141,521774.376,-37.421,,,
134946.604,521775.241,-37.431,,,
134947.021,521774.307,-37.424,,,
134947.097,521774.183,-37.437,,,
134946.284,521775.209,-37.426,,,
134946.158,521775.133,-37.429,,,
134945.869,521774.782,-37.425,,,
134948.593,521775.33,-37.432,,,
134948.674,521775.212,-37.435,,,
134947.736,521776.163,-37.437,,,
134948.125,521775.536,-37.428,,,
134947.618,521776.082,-37.449,,,
134947.139,521776.305,-37.418,,,
134947.291,521776.056,-37.443,,,
134947.933,521774.745,-37.421,,,
134947.918,521774.231,-37.42,,,
134947.613,521774.727,-37.432,,,
134946.782,521776.075,-37.428,,,
134947.082,521775.586,-37.434,,,
134947.569,521774.519,-37.422,,,
134946.875,521775.628,-37.425,,,
134946.95,521775.502,-37.429,,,
134948.736,521775.382,-37.438,,,
134947.704,521773.754,-37.42,,,
134946.636,521775.478,-37.431,,,
134946.474,521775.729,-37.451,,,
134946.892,521774.782,-37.427,,,
134946.586,521775.277,-37.43,,,
134946.998,521774.336,-37.423,,,
134947.073,521774.211,-37.427,,,
134946.216,521775.044,-37.432,,,
134948.813,521775.335,-37.437,,,
134945.894,521775.025,-37.425,,,
134947.717,521773.801,-37.416,,,
134946.517,521775.441,-37.414,,,
134947.273,521775.823,-37.379,,,
134946.669,521774.728,-37.38,,,
134946.543,521774.652,-37.375,,,
134947.207,521775.108,-37.377,,,
134947.746,521775.398,-37.397,,,
134947.44,521775.893,-37.409,,,
134947.359,521776.011,-37.397,,,
134948.24,521774.34,-37.412,,,
134947.621,521775.322,-37.400999999999996,,,
134947.921,521774.834,-37.416,,,
134947.458,521775.047,-37.411,,,
134947.556,521774.607,-37.408,,,
134947.869,521774.107,-37.405,,,
134947.33,521774.984,-37.414,,,
134947.004,521774.944,-37.391,,,
134947.08,521774.819,-37.403999999999996,,,
134947.5,521773.875,-37.415,,,
134947.248,521773.722,-37.405,,,
134946.515,521774.63,-37.387,,,
134946.583,521774.51,-37.391,,,
134946.44,521774.756,-37.400999999999996,,,
134948.581,521775.284,-37.445,,,
134948.029,521775.62,-37.419,,,
134947.799,521775.991,-37.444,,,
134948.215,521775.056,-37.419,,,
134948.291,521774.932,-37.432,,,
134947.74,521775.269,-37.433,,,
134947.121,521776.252,-37.431,,,
134947.262,521776.018,-37.421,,,
134947.727,521774.743,-37.434,,,
134947.109,521775.726,-37.441,,,
134947.606,521774.674,-37.427,,,
134947.063,521775.53,-37.42,,,
134946.908,521775.776,-37.44,,,
134947.556,521774.472,-37.426,,,
134946.862,521775.581,-37.429,,,
134947.536,521773.952,-37.426,,,
134947.485,521773.75,-37.425,,,
134947.11,521774.365,-37.424,,,
134947.186,521774.24,-37.437,,,
134946.58,521775.224,-37.434,,,
134946.985,521774.289,-37.427,,,
134947.061,521774.165,-37.44,,,
134946.252,521775.197,-37.419,,,
134946.127,521775.122,-37.432,,,
134946.203,521774.997,-37.436,,,
134946.384,521774.426,-37.436,,,
134946.585,521774.722,-37.368,,,
134945.837,521774.77,-37.419,,,
134946.454,521774.804,-37.406,,,
134947.694,521773.83,-37.416,,,
134948.712,521775.366,-37.432,,,
134948.57,521775.314,-37.444,,,
134948.645,521775.202,-37.456,,,
134948.006,521775.649,-37.428,,,
134948.094,521775.526,-37.431,,,
134948.325,521775.157,-37.433,,,
134947.788,521776.022,-37.443,,,
134948.192,521775.086,-37.428,,,
134947.11,521776.282,-37.421,,,
134947.267,521776.039,-37.437,,,
134947.902,521774.734,-37.424,,,
134947.409,521775.268,-37.426,,,
134947.583,521774.703,-37.427,,,
134947.045,521775.567,-37.419,,,
134947.54,521774.496,-37.425,,,
134946.927,521775.486,-37.431,,,
134947.52,521773.976,-37.444,,,
134946.445,521775.705,-37.446,,,
134947.087,521774.395,-37.432,,,
134947.17,521774.263,-37.427,,,
134947.044,521774.188,-37.431,,,
134946.223,521775.233,-37.437,,,
134946.306,521775.102,-37.441,,,
134946.567,521774.413,-37.435,,,
134946.187,521775.021,-37.435,,,
134948.628,521775.27,-37.434,,,
134947.703,521776.224,-37.453,,,
134947.774,521774.73,-37.432,,,
134946.967,521775.764,-37.428,,,
134947.047,521775.645,-37.423,,,
134947.116,521775.526,-37.436,,,
134947.916,521773.959,-37.421,,,
134947.402,521774.51,-37.433,,,
134947.588,521773.946,-37.423,,,
134946.597,521775.532,-37.439,,,
134947.464,521773.857,-37.419,,,
134946.77,521774.965,-37.422,,,
134946.933,521774.731,-37.455,,,
134947.157,521774.352,-37.422,,,
134946.628,521775.212,-37.441,,,
134947.032,521774.276,-37.425,,,
134946.25,521774.985,-37.443,,,
134946.368,521774.45,-37.436,,,
134945.885,521774.759,-37.435,,,
134945.948,521774.871,-37.432,,,
134947.74,521775.48,-37.383,,,
134947.32,521775.046,-37.383,,,
134947.108,521774.152,-37.447,,,
134948.759,521775.353,-37.43,,,
134948.734,521775.246,-37.429,,,
134948.063,521775.515,-37.434,,,
134948.294,521775.145,-37.426,,,
134948.37,521775.021,-37.439,,,
134947.683,521776.123,-37.433,,,
134947.751,521776.003,-37.437,,,
134947.983,521775.634,-37.439,,,
134948.163,521775.063,-37.431,,,
134948.347,521774.511,-37.421,,,
134947.431,521775.971,-37.432,,,
134947.92,521774.907,-37.447,,,
134947.082,521776.26,-37.442,,,
134947.239,521776.017,-37.449,,,
134947.979,521774.266,-37.432,,,
134948.06,521774.148,-37.427,,,
134947.859,521774.197,-37.426,,,
134947.016,521775.543,-37.422,,,
134947.421,521774.609,-37.425,,,
134947.503,521774.478,-37.42,,,
134946.646,521775.311,-37.433,,,
134947.058,521774.371,-37.427,,,
134947.014,521774.178,-37.442,,,
134946.663,521774.465,-37.426,,,
134946.894,521774.095,-37.419,,,
134946.193,521775.209,-37.431,,,
134946.537,521774.403,-37.447,,,
134946.707,521776.036,-37.38,,,
134946.083,521775.124,-37.453,,,
134946.151,521775.003,-37.439,,,
134946.337,521774.439,-37.438,,,
134945.911,521774.852,-37.427,,,
134946.509,521774.712,-37.373,,,
134948.193,521775.642,-37.408,,,
134948.256,521774.991,-37.421,,,
134946.578,521774.593,-37.386,,,
134947.74,521775.54,-37.406,,,
134947.629,521775.453,-37.4,,,
134945.785,521774.776,-37.421,,,
134947.397,521775.821,-37.389,,,
134947.704,521775.327,-37.403999999999996,,,
134947.316,521775.94,-37.395,,,
134948.729,521775.329,-37.424,,,
134948.605,521775.255,-37.446,,,
134948.358,521775.109,-37.434,,,
134947.674,521776.201,-37.456,,,
134947.979,521775.718,-37.452,,,
134948.161,521775.135,-37.453,,,
134948.233,521775.02,-37.421,,,
134947.995,521774.872,-37.445,,,
134947.751,521775.239,-37.444,,,
134947.789,521774.914,-37.445,,,
134946.93,521775.745,-37.423,,,
134947.087,521775.502,-37.43,,,
134947.023,521774.774,-37.429,,,
134947.259,521774.411,-37.421,,,
134946.567,521775.521,-37.442,,,
134947.428,521773.84,-37.431,,,
134947.128,521774.329,-37.425,,,
134946.522,521775.313,-37.422,,,
134946.591,521775.194,-37.444,,,
134947.945,521774.117,-37.399,,,
134947.39,521773.64,-37.429,,,
134947.003,521774.253,-37.429,,,
134946.271,521775.162,-37.43,,,
134946.145,521775.086,-37.433,,,
134946.221,521774.961,-37.437,,,
134947.259,521775.22,-37.402,,,
134946.728,521776.078,-37.394,,,
134945.849,521774.74,-37.429,,,
134947.028,521775.59,-37.418,,,
134947.552,521774.692,-37.42,,,
134946.478,521774.702,-37.376,,,
134947.085,521774.136,-37.45,,,
134946.978,521776.363,-37.451,,,
134947.096,521776.443,-37.438,,,
134947.067,521776.42,-37.441,,,
134946.758,521776.148,-37.406,,,
134947.159,521776.406,-37.428,,,
134946.741,521776.126,-37.399,,,
134947.012,521776.302,-37.444,,,
134947.122,521776.387,-37.422,,,
134946.988,521776.286,-37.446,,,
134946.71,521776.114,-37.393,,,
134946.913,521776.321,-37.457,,,
134947.144,521776.417,-37.428,,,
134947.008,521776.373,-37.439,,,
134947.037,521776.396,-37.436,,,
134946.754,521776.128,-37.407,,,
134947.064,521776.341,-37.429,,,
134947.022,521776.421,-37.453,,,
134946.991,521776.274,-37.456,,,
134946.741,521776.126,-37.399,,,
134946.754,521776.173,-37.395,,,
134946.717,521776.109,-37.393,,,
134946.896,521776.358,-37.465,,,
134946.972,521776.31,-37.446,,,
134947.084,521776.383,-37.434,,,
134946.936,521776.292,-37.458,,,
134947.001,521776.333,-37.442,,,
134947.113,521776.406,-37.43,,,
134947.019,521776.297,-37.444,,,
134947.054,521776.372,-37.436,,,
134946.783,521776.196,-37.400999999999996,,,
134947.084,521776.337,-37.428,,,
134946.927,521776.37,-37.472,,,
134947.105,521776.366,-37.425,,,
134946.942,521776.345,-37.454,,,
134946.955,521776.812,-37.431,,,
134948.953,521776.194,-37.397,,,
134948.448,521775.917,-37.41,,,
134948.015,521776.336,-37.408,,,
134947.793,521776.747,-37.439,,,
134949.608,521776.727,-37.412,,,
134948.941,521776.147,-37.400999999999996,,,
134949.127,521775.584,-37.400999999999996,,,
134948.747,521776.191,-37.400999999999996,,,
134949.946,521776.737,-37.455,,,
134949.552,521776.817,-37.437,,,
134949.501,521776.615,-37.426,,,
134949.433,521776.75,-37.449,,,
134948.906,521776.76,-37.434,,,
134949.136,521776.389,-37.418,,,
134948.847,521776.039,-37.432,,,
134948.452,521776.657,-37.423,,,
134948.536,521776.527,-37.436,,,
134948.94,521775.592,-37.43,,,
134949.028,521775.468,-37.433,,,
134948.417,521775.907,-37.413,,,
134949.046,521775.702,-37.398,,,
134949.662,521776.768,-37.434,,,
134949.471,521776.8,-37.443,,,
134949.171,521776.465,-37.42,,,
134948.377,521776.647,-37.438,,,
134948.452,521776.521,-37.433,,,
134948.393,521775.8,-37.421,,,
134949.524,521776.721,-37.409,,,
134949.6,521776.596,-37.413,,,
134948.516,521775.797,-37.414,,,
134949.348,521775.919,-37.41,,,
134948.996,521776.22,-37.402,,,
134948.788,521776.261,-37.384,,,
134949.045,521775.566,-37.407,,,
134948.488,521775.91,-37.417,,,
134948.002,521776.439,-37.42,,,
134948.37,521775.829,-37.421,,,
134949.576,521776.58,-37.415,,,
134949.655,521776.714,-37.41,,,
134949.534,521776.645,-37.403999999999996,,,
134949.172,521776.407,-37.415,,,
134949.351,521775.848,-37.406,,,
134948.727,521776.299,-37.413,,,
134948.794,521776.178,-37.399,,,
134948.43,521775.954,-37.418,,,
134948.916,521775.635,-37.456,,,
134947.959,521776.487,-37.456,,,
134948.918,521776.253,-37.377,,,
134948.346,521775.812,-37.414,,,
134949.501,521776.705,-37.411,,,
134949.519,521776.669,-37.413,,,
134948.824,521776.338,-37.403999999999996,,,
134949.571,521776.708,-37.407,,,
134949.202,521776.476,-37.418,,,
134949.388,521775.912,-37.408,,,
134948.912,521776.124,-37.403999999999996,,,
134949.022,521775.686,-37.4,,,
134948.711,521776.174,-37.413,,,
134949.613,521776.643,-37.409,,,
134948.876,521776.183,-37.384,,,
134948.794,521776.314,-37.39,,,
134948.446,521776.604,-37.418,,,
134948.501,521775.957,-37.413,,,
134948.877,521776.736,-37.438,,,
134948.811,521776.021,-37.436,,,
134948.429,521776.641,-37.426,,,
134948.499,521776.509,-37.44,,,
134948.992,521775.45,-37.436,,,
134948.483,521775.994,-37.421,,,
134948.566,521775.863,-37.425,,,
134948.18,521776.478,-37.443,,,
134948.441,521775.788,-37.429,,,
134947.836,521776.773,-37.444,,,
134948.637,521775.747,-37.474,,,
134949.732,521776.68,-37.426,,,
134949.647,521776.792,-37.442,,,
134949.156,521776.49,-37.438,,,
134948.799,521776.784,-37.439,,,
134949.626,521776.69,-37.414,,,
134948.633,521775.771,-37.463,,,
134949.261,521776.465,-37.415,,,
134949.435,521775.9,-37.415,,,
134948.959,521776.112,-37.412,,,
134949.145,521775.548,-37.411,,,
134948.77,521776.162,-37.400999999999996,,,
134949.069,521775.672,-37.389,,,
134949.291,521775.725,-37.427,,,
134948.428,521776.551,-37.432,,,
134948.189,521776.4,-37.429,,,
134947.981,521776.456,-37.429,,,
134949.96,521776.77,-37.434,,,
134949.447,521776.784,-37.445,,,
134949.269,521776.519,-37.438,,,
134948.547,521776.586,-37.432,,,
134948.348,521776.624,-37.441,,,
134948.429,521776.506,-37.444,,,
134948.364,521775.777,-37.425,,,
134947.734,521776.235,-37.45,,,
134949.456,521776.765,-37.437,,,
134948.935,521776.784,-37.44,,,
134948.87,521776.054,-37.421,,,
134948.358,521775.918,-37.425,,,
134949.515,521776.799,-37.431,,,
134948.969,521775.615,-37.426,,,
134948.363,521776.6,-37.433,,,
134948.864,521775.537,-37.447,,,
134948.124,521776.449,-37.421,,,
134948.3,521775.872,-37.431,,,
134948.375,521775.747,-37.435,,,
134947.77,521776.731,-37.441,,,
134947.75,521776.21,-37.442,,,
134948.388,521775.883,-37.416,,,
134949.063,521775.62,-37.393,,,
134948.038,521776.306,-37.399,,,
134948.834,521776.126,-37.409,,,
134948.759,521776.238,-37.388,,,
134949.06,521775.75,-37.412,,,
134949.119,521775.738,-37.4,,,
134948.571,521775.78,-37.43,,,
134948.184,521776.348,-37.433,,,
134949.678,521776.684,-37.402,,,
134949.553,521776.609,-37.415,,,
134949.556,521776.732,-37.415,,,
134949.628,521776.619,-37.4,,,
134949.015,521775.705,-37.418,,,
134948.524,521775.928,-37.414,,,
134948.02,521776.448,-37.418,,,
134949.082,521775.779,-37.418,,,
134949.889,521776.812,-37.426,,,
134949.568,521776.793,-37.428,,,
134949.196,521776.542,-37.459,,,
134948.922,521776.737,-37.444,,,
134949.147,521776.358,-37.42,,,
134949.906,521776.789,-37.436,,,
134949.541,521776.563,-37.428,,,
134949.211,521776.518,-37.441,,,
134949.017,521775.738,-37.424,,,
134948.875,521775.986,-37.452,,,
134948.981,521775.526,-37.423,,,
134948.638,521775.822,-37.442,,,
134948.056,521776.479,-37.432,,,
134948.835,521776.248,-37.383,,,
134949.015,521775.765,-37.441,,,
134948.858,521776.008,-37.434,,,
134948.552,521776.504,-37.446,,,
134948.963,521775.562,-37.421,,,
134947.841,521776.691,-37.458,,,
134949.327,521775.877,-37.405,,,
134948.775,521776.214,-37.388,,,
134948.852,521776.091,-37.419,,,
134949.158,521775.595,-37.407,,,
134949.033,521775.519,-37.411,,,
134949.472,521776.728,-37.42,,,
134949.309,521776.452,-37.422,,,
134948.954,521776.748,-37.451,,,
134949.756,521776.697,-37.433,,,
134949.185,521776.514,-37.434,,,
134948.827,521776.807,-37.427,,,
134948.776,521776.08,-37.416,,,
134948.95,521775.515,-37.425,,,
134948.608,521775.799,-37.436,,,
134948.012,521776.466,-37.427,,,
134949.038,521775.78,-37.429,,,
134948.858,521776.219,-37.383,,,
134948.887,521776.242,-37.38,,,
134949.542,521776.685,-37.41,,,
134949.623,521776.567,-37.413,,,
134949.096,521775.768,-37.408,,,
134949.363,521775.895,-37.402,,,
134948.806,521776.225,-37.386,,,
134949.001,521775.658,-37.413,,,
134949.069,521775.537,-37.408,,,
134949.509,521776.745,-37.417,,,
134949.211,521776.399,-37.403999999999996,,,
134948.972,521776.248,-37.392,,,
134948.764,521776.304,-37.400999999999996,,,
134949.035,521775.597,-37.406,,,
134948.477,521775.941,-37.416,,,
134949.381,521775.859,-37.403,,,
134948.948,521776.277,-37.383,,,
134948.829,521776.196,-37.386,,,
134948.899,521776.078,-37.417,,,
134949.136,521775.701,-37.392,,,
134949.733,521776.726,-37.441,,,
134949.538,521776.769,-37.423,,,
134948.894,521776.714,-37.456,,,
134948.83,521775.985,-37.446,,,
134948.523,521776.481,-37.449,,,
